-0.47961,	-0.31710,	-0.20408,	-0.05058,	0.01065,	-0.03270,	-0.08642,	-0.16484,	-0.33770,	-0.45032,	-0.39846,	-0.28223,	-0.32995,	-0.39569,	-0.40021,	-0.45859,	-0.52896,	-0.64338,	-0.86316,	-1.11614,	-1.24541,	-1.29785,	-1.27471,	-1.32807,	-1.26916,	-1.20988,	-1.19096,	-1.22672,	-1.24779,	-1.11838,	-0.90570,	-0.73769,	-0.61658,	-0.50188,	-0.39397,	-0.16882,	0.03295,	0.02781,	-0.15094,	-0.34046,	-0.48844,	-0.66189,	-0.72840,	-0.74418,	-0.82652,	-0.81718,	-0.63469,	-0.49732,	-0.37809,	-0.27386,	-0.32498,	-0.46914,	-0.62741,	-0.66439,	-0.55956,	-0.48982,	-0.48977,	-0.56191,	-0.64066,	-0.72862,	-0.91241,	-0.97097,	-0.97779,	-0.97735,	-1.03348,	-1.02665,	-1.06419,	-1.11882,	-1.13366,	-1.22792,	-1.28050,	-1.25460,	-1.28775,	-1.47711,	-1.56740,	-1.44007,	-1.37296,	-1.34161,	-1.28430,	-1.31113,	-1.34031,	-1.32145,	-1.36564,	-1.43037,	-1.37607,	-1.29610,	-1.25786,	-1.34990,	-1.43697,	-1.44092,	-1.46164,	-1.51369,	-1.69444,	-1.85817,	-1.89785,	-1.84536,	-1.79598,	-1.79628,	-1.95754,	-2.11476,	-2.11860,	-2.11941,	-2.08596,	-1.99663,	-1.92519,	-1.82798,	-1.67541,	-1.50530,	-1.50298,	-1.61118,	-1.70640,	-1.83359,	-2.01707,	-1.98819,	-1.86046,	-1.70708,	-1.63805,	-1.62911,	-1.58214,	-1.58546,	-1.66770,	-1.63867,	-1.66315,	-1.60226,	-1.66291,	-1.60236,	-1.47384,	-1.36389,	-1.26651,	-1.13725,	-1.00813,	-0.97721,	-1.01435,	-1.23913,	-1.53544,	-1.72408,	-1.82563,	-1.98330,	-2.16120,	-2.25496,	-2.40200,	-2.59257,	-2.75397,	-2.90502,	-3.02713,	-3.04996,	-3.09661,	-3.12284,	-3.05591,	-2.89108,	-2.71908,	-2.59537,	-2.62004,	-2.60337,	-2.56574,	-2.30779,	-2.11869,	-1.95054,	-1.83412,	-1.68511,	-1.51649,	-1.34976,	-1.24705,	-1.28618,	-1.30028,	-1.41280,	-1.56292,	-1.67204,	-1.71576,	-1.83536,	-2.00328,	-2.05854,	-2.17221,	-2.20641,	-2.11664,	-1.99700,	-2.07367,	-2.17706,	-2.20398,	-2.21211,	-2.14324,	-1.95228,	-1.73459,	-1.50715,	-1.49135,	-1.40035,	-1.41215,	-1.31676,	-1.25702,	-1.14241,	-0.91319,	-0.67064,	-0.53592,	-0.47304,	-0.50939,	-0.56891,	-0.46461,	-0.39432,	-0.35871,	-0.27007,	-0.05519,	0.13928,	0.20882,	0.34118,	0.43198,	0.39569,	0.34458,	0.35325,	0.35900,	0.46493,	0.61269,	0.69170,	0.70701,	0.69547,	0.76225,	0.97859,	1.07624,	1.16538,	1.09002,	1.14333,	1.17088,	1.16492,	1.15694,	1.12592,	1.06813,	0.99850,	0.95879,	0.89051,	1.00205,	1.07526,	0.98491,	0.93511,	0.98432,	1.11110,	1.14065,	1.16512,	0.99440,	0.66965,	0.45006,	0.33478,	0.23813,	0.20700,	0.20443,	0.09991,	-0.12271,	-0.33300,	-0.55496,	-0.67985,	-0.85642,	-0.90846,	-0.86675,	-0.69997,	-0.58570,	-0.55939,	-0.51306,	-0.32138,	-0.13751,	0.02713,	0.07773,	-0.01143,	-0.00750,	0.02713,	-0.09575,	-0.18838,	-0.14394,	-0.11889,	-0.25575,	-0.35314,	-0.43534,	-0.60838,	-0.76166,	-0.83405,	-0.95155,	-1.04670,	-0.93882,	-0.75246,	-0.59889,	-0.52429,	-0.54540,	-0.46084,	-0.44548,	-0.40239,	-0.39141,	-0.34147,	-0.26272,	-0.26657,	-0.26449,	-0.23587,	-0.18833,	-0.26591,	-0.43631,	-0.73920,	-0.90710,	-0.83029,	-0.76396,	-0.70116,	-0.66044,	-0.57601,	-0.49513,	-0.38141,	-0.27567,	-0.32149,	-0.41965,	-0.50178,	-0.70122,	-0.88788,	-0.98800
-0.51723,	-0.42448,	-0.26131,	-0.12200,	-0.04368,	-0.10619,	-0.18275,	-0.18189,	-0.36890,	-0.40870,	-0.43247,	-0.44984,	-0.49429,	-0.53730,	-0.57431,	-0.62053,	-0.65501,	-0.68115,	-0.93248,	-1.31147,	-1.48270,	-1.44801,	-1.46346,	-1.52432,	-1.41652,	-1.28061,	-1.24131,	-1.19477,	-1.17527,	-1.01878,	-0.87114,	-0.76461,	-0.66778,	-0.52901,	-0.28213,	-0.05324,	0.09528,	0.06325,	-0.11883,	-0.21847,	-0.35599,	-0.44740,	-0.52755,	-0.62472,	-0.66490,	-0.64058,	-0.52692,	-0.43288,	-0.35038,	-0.24960,	-0.33299,	-0.55494,	-0.70737,	-0.62061,	-0.53417,	-0.51626,	-0.45694,	-0.46846,	-0.60344,	-0.77359,	-1.03207,	-1.12141,	-1.10615,	-1.07280,	-1.07037,	-1.05701,	-1.01042,	-1.03670,	-1.07297,	-1.16380,	-1.24599,	-1.21429,	-1.27439,	-1.41746,	-1.49000,	-1.42548,	-1.29998,	-1.23313,	-1.25846,	-1.36467,	-1.39948,	-1.31124,	-1.32734,	-1.46101,	-1.46407,	-1.30525,	-1.18140,	-1.25207,	-1.25594,	-1.24266,	-1.35866,	-1.50009,	-1.63947,	-1.72832,	-1.64267,	-1.58363,	-1.54761,	-1.58240,	-1.67095,	-1.80038,	-1.84796,	-1.84123,	-1.81079,	-1.65244,	-1.53357,	-1.40995,	-1.23630,	-1.17927,	-1.20722,	-1.36094,	-1.54896,	-1.73429,	-1.89424,	-1.79649,	-1.65000,	-1.58003,	-1.56893,	-1.50352,	-1.43436,	-1.56786,	-1.68291,	-1.66337,	-1.67167,	-1.60597,	-1.54407,	-1.44490,	-1.24313,	-1.14230,	-1.03668,	-0.94869,	-0.81012,	-0.83176,	-0.97998,	-1.20942,	-1.49601,	-1.59588,	-1.61780,	-1.77354,	-1.93822,	-2.17420,	-2.31799,	-2.45842,	-2.64566,	-2.84845,	-2.98339,	-2.95420,	-2.87459,	-2.90168,	-2.91545,	-2.77040,	-2.61768,	-2.60464,	-2.55212,	-2.42024,	-2.26480,	-2.05713,	-1.84750,	-1.71132,	-1.55900,	-1.47451,	-1.34543,	-1.25346,	-1.14522,	-1.16938,	-1.27279,	-1.41813,	-1.60640,	-1.69649,	-1.72691,	-1.94251,	-2.09016,	-2.25638,	-2.35193,	-2.30549,	-2.23131,	-2.15787,	-2.21008,	-2.24939,	-2.18578,	-2.26962,	-2.35676,	-2.18718,	-1.88639,	-1.68587,	-1.56832,	-1.42483,	-1.38290,	-1.35540,	-1.26346,	-1.16415,	-0.91099,	-0.76444,	-0.65970,	-0.61756,	-0.58871,	-0.54232,	-0.47354,	-0.42794,	-0.46278,	-0.39979,	-0.11304,	0.06302,	0.21682,	0.26854,	0.33091,	0.39034,	0.43473,	0.45518,	0.45023,	0.52244,	0.66945,	0.68464,	0.62642,	0.68976,	0.92784,	1.09261,	1.20699,	1.33518,	1.31889,	1.28772,	1.31898,	1.29657,	1.34021,	1.28429,	1.21038,	1.09595,	1.05479,	1.03874,	1.04100,	1.01537,	0.87473,	0.83804,	1.01468,	1.14655,	1.24277,	1.20343,	1.00762,	0.76846,	0.57205,	0.34784,	0.14569,	0.09393,	0.18317,	0.11477,	-0.14820,	-0.37000,	-0.49978,	-0.67243,	-0.84023,	-0.83385,	-0.75860,	-0.71954,	-0.63772,	-0.61553,	-0.50347,	-0.30161,	-0.14737,	-0.05423,	-0.08167,	-0.15090,	-0.18534,	-0.17870,	-0.31319,	-0.40979,	-0.28236,	-0.22642,	-0.20704,	-0.29382,	-0.45013,	-0.61981,	-0.81297,	-0.96147,	-1.09377,	-1.10996,	-0.86178,	-0.67755,	-0.62008,	-0.57093,	-0.49582,	-0.43121,	-0.42072,	-0.29432,	-0.20115,	-0.19512,	-0.15048,	-0.16066,	-0.13654,	-0.12087,	-0.16935,	-0.34290,	-0.55479,	-0.76630,	-0.88821,	-0.81904,	-0.77000,	-0.71822,	-0.59355,	-0.51419,	-0.42006,	-0.41445,	-0.49258,	-0.51955,	-0.56263,	-0.62937,	-0.80689,	-0.97059,	-0.99143
-0.58676,	-0.58096,	-0.41776,	-0.25999,	-0.20734,	-0.24969,	-0.31686,	-0.36191,	-0.59028,	-0.65884,	-0.76871,	-0.79745,	-0.77340,	-0.76889,	-0.79300,	-0.78595,	-0.81482,	-0.91478,	-1.21762,	-1.47821,	-1.55210,	-1.52454,	-1.54341,	-1.58903,	-1.49389,	-1.37328,	-1.32711,	-1.17544,	-1.11861,	-1.03447,	-0.99074,	-0.84372,	-0.68458,	-0.49138,	-0.18879,	0.01758,	0.10548,	0.10928,	0.00757,	-0.12455,	-0.31988,	-0.37575,	-0.44482,	-0.52845,	-0.54777,	-0.57407,	-0.52261,	-0.39963,	-0.28780,	-0.27346,	-0.42817,	-0.54873,	-0.53076,	-0.41274,	-0.42279,	-0.51301,	-0.50602,	-0.51110,	-0.67441,	-0.84758,	-1.11760,	-1.26289,	-1.27098,	-1.20655,	-1.17572,	-1.19069,	-1.10075,	-1.02987,	-1.01802,	-1.07526,	-1.14914,	-1.18733,	-1.29875,	-1.42088,	-1.49720,	-1.44021,	-1.27967,	-1.22003,	-1.29543,	-1.38586,	-1.37110,	-1.30295,	-1.32075,	-1.38010,	-1.32245,	-1.23030,	-1.15131,	-1.21979,	-1.22604,	-1.27194,	-1.49290,	-1.62984,	-1.66092,	-1.66083,	-1.55479,	-1.53253,	-1.50717,	-1.56215,	-1.57504,	-1.63412,	-1.63812,	-1.55041,	-1.41682,	-1.26998,	-1.24932,	-1.17473,	-1.03789,	-0.99408,	-0.96798,	-1.15505,	-1.41271,	-1.60795,	-1.69003,	-1.60890,	-1.58176,	-1.55577,	-1.46288,	-1.39768,	-1.38437,	-1.58600,	-1.74609,	-1.74173,	-1.75039,	-1.68542,	-1.55264,	-1.45472,	-1.25591,	-1.12796,	-0.97624,	-0.95769,	-0.87434,	-0.89366,	-0.98085,	-1.14106,	-1.31265,	-1.40354,	-1.52633,	-1.72456,	-1.93708,	-2.21134,	-2.28025,	-2.37505,	-2.51348,	-2.70374,	-2.83870,	-2.85226,	-2.79648,	-2.76132,	-2.64635,	-2.56430,	-2.52955,	-2.54148,	-2.40872,	-2.14398,	-1.95964,	-1.85375,	-1.67138,	-1.58078,	-1.46201,	-1.44933,	-1.33057,	-1.29040,	-1.19546,	-1.20790,	-1.31169,	-1.47653,	-1.59429,	-1.65333,	-1.77316,	-2.06982,	-2.28615,	-2.51692,	-2.51846,	-2.42471,	-2.38347,	-2.37074,	-2.38740,	-2.37742,	-2.32919,	-2.40054,	-2.37513,	-2.21047,	-1.97517,	-1.85626,	-1.75892,	-1.60254,	-1.53784,	-1.52666,	-1.39656,	-1.33784,	-1.16095,	-1.06044,	-0.86996,	-0.80098,	-0.72673,	-0.62473,	-0.52351,	-0.49161,	-0.49183,	-0.42295,	-0.22376,	-0.07245,	0.12450,	0.13679,	0.21103,	0.30818,	0.42740,	0.47961,	0.49432,	0.48208,	0.48649,	0.49096,	0.62353,	0.82814,	1.03959,	1.07671,	1.12802,	1.29188,	1.32550,	1.23051,	1.28399,	1.28956,	1.33728,	1.25508,	1.20458,	1.06440,	1.02921,	1.08571,	1.13538,	1.07957,	0.97523,	0.97516,	1.12810,	1.21887,	1.25979,	1.10919,	0.92878,	0.77558,	0.62437,	0.36279,	0.14220,	0.07158,	0.07874,	-0.04924,	-0.21786,	-0.38638,	-0.53916,	-0.76498,	-0.96117,	-0.94968,	-0.88819,	-0.90880,	-0.79002,	-0.74767,	-0.64766,	-0.51232,	-0.38470,	-0.35024,	-0.44107,	-0.47403,	-0.44029,	-0.37487,	-0.38319,	-0.44402,	-0.42855,	-0.44150,	-0.37271,	-0.46965,	-0.63393,	-0.81578,	-1.01910,	-1.14513,	-1.16767,	-1.05670,	-0.86030,	-0.78175,	-0.66515,	-0.48921,	-0.38640,	-0.39013,	-0.39316,	-0.18950,	-0.03730,	-0.08594,	-0.09620,	-0.13759,	-0.14665,	-0.16794,	-0.23374,	-0.44599,	-0.69887,	-0.83495,	-0.82186,	-0.69959,	-0.62951,	-0.60215,	-0.56798,	-0.57051,	-0.50999,	-0.59817,	-0.74027,	-0.71826,	-0.73159,	-0.81408,	-0.95908,	-1.06999,	-1.10627
-0.63416,	-0.58449,	-0.50428,	-0.44594,	-0.42707,	-0.53940,	-0.62547,	-0.62947,	-0.74416,	-0.92071,	-1.07029,	-1.07047,	-0.98569,	-0.85369,	-0.86197,	-0.88634,	-0.90093,	-1.05917,	-1.28858,	-1.45199,	-1.46783,	-1.49354,	-1.47024,	-1.36354,	-1.36443,	-1.43726,	-1.32286,	-1.11437,	-1.04807,	-1.02040,	-0.97301,	-0.75572,	-0.51767,	-0.20674,	-0.01980,	-0.00983,	0.03422,	0.02256,	-0.03957,	-0.14473,	-0.24546,	-0.33079,	-0.39916,	-0.46384,	-0.54565,	-0.55323,	-0.51963,	-0.41355,	-0.19613,	-0.18225,	-0.28606,	-0.33642,	-0.29580,	-0.25205,	-0.36837,	-0.42639,	-0.53579,	-0.70569,	-0.80319,	-0.89661,	-1.13296,	-1.27138,	-1.28362,	-1.23818,	-1.24666,	-1.20109,	-1.11568,	-1.05134,	-0.97315,	-1.03878,	-1.16825,	-1.18262,	-1.13388,	-1.24123,	-1.37115,	-1.32914,	-1.26301,	-1.17687,	-1.22750,	-1.30730,	-1.20512,	-1.13839,	-1.07395,	-1.08406,	-1.11934,	-1.15191,	-1.19761,	-1.17286,	-1.22036,	-1.46638,	-1.65735,	-1.64803,	-1.61449,	-1.54466,	-1.52098,	-1.59264,	-1.62985,	-1.59253,	-1.53811,	-1.62595,	-1.58466,	-1.44779,	-1.31857,	-1.17377,	-1.09807,	-1.03101,	-0.97680,	-0.87258,	-0.83753,	-0.96311,	-1.19990,	-1.45745,	-1.50683,	-1.47874,	-1.51227,	-1.50554,	-1.49266,	-1.43551,	-1.49562,	-1.56994,	-1.67747,	-1.79725,	-1.79852,	-1.66597,	-1.57937,	-1.46739,	-1.29307,	-1.12254,	-0.99488,	-0.95959,	-0.90464,	-0.94458,	-0.91030,	-0.96613,	-1.12616,	-1.23744,	-1.34319,	-1.52693,	-1.85022,	-2.05322,	-2.13925,	-2.18749,	-2.21207,	-2.44400,	-2.60066,	-2.65691,	-2.62699,	-2.51019,	-2.42746,	-2.36904,	-2.39980,	-2.23837,	-1.95787,	-1.75438,	-1.69402,	-1.63066,	-1.57533,	-1.50764,	-1.45063,	-1.48719,	-1.47339,	-1.43486,	-1.33655,	-1.42978,	-1.53989,	-1.65573,	-1.77197,	-1.78260,	-1.80160,	-2.01769,	-2.38672,	-2.62109,	-2.67455,	-2.60716,	-2.53042,	-2.60985,	-2.62272,	-2.52762,	-2.44387,	-2.37365,	-2.32173,	-2.15378,	-2.05743,	-1.95649,	-1.83160,	-1.79228,	-1.79026,	-1.65457,	-1.54987,	-1.50685,	-1.40471,	-1.23953,	-0.99272,	-0.83229,	-0.67322,	-0.64665,	-0.58759,	-0.53021,	-0.56003,	-0.47197,	-0.25615,	-0.02100,	0.09373,	0.10620,	0.10941,	0.16972,	0.37875,	0.41158,	0.40450,	0.39186,	0.37646,	0.51604,	0.70924,	0.95336,	0.96821,	0.91742,	1.02222,	1.13028,	1.10091,	1.08414,	1.11273,	1.14852,	1.17665,	1.11640,	1.04461,	0.95349,	1.03574,	1.11012,	1.20337,	1.22489,	1.08870,	1.07128,	1.22171,	1.36269,	1.24903,	1.02340,	0.80995,	0.68113,	0.65726,	0.41854,	0.19757,	0.16257,	0.09111,	-0.04642,	-0.25612,	-0.43754,	-0.67540,	-0.89618,	-0.98052,	-1.05216,	-1.13008,	-1.02483,	-0.85416,	-0.80459,	-0.75999,	-0.70577,	-0.67700,	-0.67394,	-0.67450,	-0.68335,	-0.64509,	-0.47059,	-0.42554,	-0.52263,	-0.58067,	-0.55859,	-0.57934,	-0.71208,	-0.89443,	-1.10714,	-1.15524,	-1.18074,	-1.14240,	-0.94229,	-0.87748,	-0.83959,	-0.71177,	-0.47980,	-0.38094,	-0.41439,	-0.28597,	-0.08690,	-0.05976,	-0.07583,	-0.11818,	-0.20202,	-0.23629,	-0.26478,	-0.32037,	-0.52057,	-0.68361,	-0.80231,	-0.79591,	-0.62083,	-0.57257,	-0.64677,	-0.67614,	-0.60639,	-0.59936,	-0.73615,	-0.85069,	-0.84855,	-0.79067,	-0.88730,	-1.08557,	-1.12842,	-1.17068
-0.65099,	-0.67131,	-0.69064,	-0.69983,	-0.67390,	-0.74773,	-0.80882,	0.00000,	0.00000,	0.00000,	-1.08171,	-1.05598,	-0.95268,	-0.87222,	-0.92598,	-0.97661,	-0.96137,	-1.11725,	-1.28033,	-1.43938,	-1.45342,	-1.38434,	-1.29605,	-1.22935,	-1.33104,	-1.36287,	-1.12122,	-0.90481,	-0.83594,	-0.78544,	-0.68650,	-0.46534,	-0.23432,	0.02105,	0.04705,	-0.07649,	-0.05094,	-0.01555,	-0.01942,	-0.14990,	-0.20828,	-0.19781,	-0.21368,	-0.26742,	-0.36913,	-0.42761,	-0.45164,	-0.37779,	-0.10903,	-0.07980,	-0.13992,	-0.20306,	-0.23942,	-0.18826,	-0.28964,	-0.40359,	-0.63180,	-0.79023,	-0.76195,	-0.83664,	-1.06582,	-1.16163,	-1.14517,	-1.11028,	-1.13266,	-1.09621,	-1.07698,	-1.03813,	-0.93091,	-0.95385,	-1.06383,	-1.11316,	-1.03564,	-1.04835,	-1.13018,	-1.10301,	-1.08358,	-1.04781,	-1.15129,	-1.23131,	-1.08023,	-1.00157,	-0.90986,	-0.95211,	-1.09000,	-1.10868,	-1.11954,	-1.11906,	-1.28800,	-1.55179,	-1.56711,	-1.48865,	-1.46878,	-1.38598,	-1.41118,	-1.54679,	-1.63450,	-1.58848,	-1.57682,	-1.68549,	-1.62529,	-1.46272,	-1.32252,	-1.22387,	-1.15817,	-0.97720,	-0.82972,	-0.69072,	-0.64844,	-0.78496,	-1.09683,	-1.40587,	-1.48414,	-1.51262,	-1.57039,	-1.57367,	-1.63438,	-1.51637,	-1.48628,	-1.52990,	-1.71109,	-1.84041,	-1.68004,	-1.47980,	-1.41651,	-1.27930,	-1.10046,	-0.93571,	-0.86557,	-0.85026,	-0.88023,	-0.92885,	-0.82627,	-0.78668,	-0.87502,	-1.00742,	-1.15464,	-1.26118,	-1.50413,	-1.67117,	-1.77411,	-1.84432,	-1.94973,	-2.23373,	-2.39271,	-2.45005,	-2.42920,	-2.28890,	-2.28735,	-2.17662,	-2.05006,	-1.80071,	-1.57653,	-1.43070,	-1.31710,	-1.27641,	-1.34360,	-1.32450,	-1.31557,	-1.41087,	-1.52998,	-1.57863,	-1.61415,	-1.77004,	-1.85621,	-1.87170,	-1.89905,	-1.88860,	-1.92322,	-2.05068,	-2.35054,	-2.59089,	-2.71901,	-2.71960,	-2.73052,	-2.83840,	-2.81419,	-2.65372,	-2.55118,	-2.42286,	-2.44070,	-2.27547,	-2.11006,	-1.98836,	-1.93926,	-1.95809,	-1.83204,	-1.60141,	-1.53957,	-1.49755,	-1.39650,	-1.20032,	-0.98097,	-0.80259,	-0.69627,	-0.72600,	-0.68834,	-0.59927,	-0.58527,	-0.49611,	-0.36451,	-0.09503,	0.07736,	0.08841,	0.06935,	0.11522,	0.25659,	0.26107,	0.25348,	0.29012,	0.31284,	0.52124,	0.64571,	0.84784,	0.87782,	0.82822,	0.86710,	0.91852,	1.00309,	1.09311,	1.07639,	1.09083,	1.11690,	1.07983,	0.99108,	0.95281,	1.02894,	1.08000,	1.18504,	1.25887,	1.16501,	1.13641,	1.16920,	1.31283,	1.27739,	1.09172,	0.90212,	0.79069,	0.71604,	0.45204,	0.22367,	0.20949,	0.10659,	-0.00628,	-0.27760,	-0.49625,	-0.66444,	-0.83485,	-0.95693,	-1.11906,	-1.14392,	-0.92443,	-0.79303,	-0.79035,	-0.78008,	-0.77233,	-0.83312,	-0.85474,	-0.86088,	-0.87502,	-0.82206,	-0.58734,	-0.49286,	-0.59878,	-0.75236,	-0.73190,	-0.68345,	-0.77981,	-0.95274,	-1.13259,	-1.15118,	-1.16896,	-1.13203,	-0.92871,	-0.94111,	-0.89688,	-0.79111,	-0.56276,	-0.34858,	-0.28772,	-0.16675,	-0.07255,	-0.03869,	0.03780,	-0.03549,	-0.14685,	-0.18805,	-0.23403,	-0.33048,	-0.54160,	-0.69876,	-0.85287,	-0.87752,	-0.67831,	-0.57598,	-0.63458,	-0.72936,	-0.66811,	-0.59948,	-0.68765,	-0.77824,	-0.77819,	-0.74630,	-0.87814,	-1.08799,	-1.10151,	-1.15856
0.00000,	0.00000,	0.00000,	0.00000,	0.00000,	0.00000,	0.00000,	0.00000,	0.00000,	0.00000,	0.00000,	0.00000,	-1.01033,	-1.00892,	-1.02445,	-1.01784,	-1.02272,	-1.16687,	-1.27655,	-1.31504,	-1.36053,	-1.26418,	-1.18098,	-1.27220,	-1.32082,	-1.20112,	-1.01695,	-0.78194,	-0.68637,	-0.59855,	-0.42400,	-0.25384,	-0.04666,	0.12855,	0.04416,	-0.05028,	-0.03703,	-0.03882,	0.03707,	-0.05355,	-0.10162,	-0.06644,	-0.06479,	-0.07259,	-0.17745,	-0.27234,	-0.26658,	-0.16759,	0.02582,	0.02030,	-0.00742,	0.00246,	-0.12523,	-0.16984,	-0.28069,	-0.52231,	-0.68630,	-0.69000,	-0.73213,	-0.82857,	-1.01388,	-1.09624,	-1.03305,	-1.02343,	-1.00705,	-0.95727,	-0.99489,	-0.91318,	-0.80078,	-0.86936,	-0.93116,	-0.99419,	-0.99099,	-1.01883,	-1.11644,	-1.07432,	-1.08232,	-1.11487,	-1.16473,	-1.14565,	-1.00666,	-0.94526,	-0.85102,	-0.86078,	-1.01067,	-1.06391,	-1.03574,	-1.16619,	-1.34797,	-1.45860,	-1.45734,	-1.40889,	-1.37319,	-1.35198,	-1.36819,	-1.55053,	-1.64943,	-1.59962,	-1.65206,	-1.71349,	-1.62648,	-1.53808,	-1.37743,	-1.25172,	-1.20018,	-0.97158,	-0.80884,	-0.65626,	-0.64551,	-0.84649,	-1.12119,	-1.36224,	-1.51766,	-1.64696,	-1.70176,	-1.62924,	-1.60595,	-1.50341,	-1.40289,	-1.53720,	-1.73643,	-1.72151,	-1.54383,	-1.36645,	-1.21281,	-1.09199,	-0.87763,	-0.76163,	-0.73233,	-0.69772,	-0.78542,	-0.80868,	-0.65420,	-0.63577,	-0.67121,	-0.74098,	-0.91643,	-1.00776,	-1.22494,	-1.35640,	-1.46174,	-1.60465,	-1.74218,	-1.99022,	-2.15699,	-2.25748,	-2.24184,	-2.08703,	-2.04724,	-1.96776,	-1.70271,	-1.50603,	-1.36286,	-1.14367,	-1.03793,	-1.10746,	-1.17765,	-1.25886,	-1.27013,	-1.42881,	-1.64605,	-1.73532,	-1.87173,	-2.01065,	-1.98213,	-1.97743,	-1.97528,	-1.92143,	-2.01688,	-2.13774,	-2.41281,	-2.64656,	-2.82746,	-2.94299,	-2.96743,	-2.96279,	-2.85745,	-2.71424,	-2.62494,	-2.49813,	-2.47752,	-2.41714,	-2.20325,	-2.11373,	-2.11968,	-2.01630,	-1.80602,	-1.65258,	-1.53793,	-1.50992,	-1.37509,	-1.21468,	-1.08549,	-0.89714,	-0.84983,	-0.87619,	-0.76489,	-0.71213,	-0.69468,	-0.54156,	-0.46329,	-0.23108,	-0.10852,	-0.13185,	-0.13352,	-0.13042,	-0.02190,	0.05195,	0.09472,	0.14381,	0.22613,	0.45513,	0.62112,	0.69766,	0.75634,	0.69774,	0.64425,	0.79315,	1.00174,	1.03810,	1.06833,	1.06595,	1.12403,	1.11748,	1.01460,	1.03673,	1.06665,	1.07199,	1.21680,	1.26279,	1.15717,	1.17974,	1.13296,	1.22499,	1.21561,	1.09651,	1.00400,	0.87380,	0.73850,	0.52614,	0.34081,	0.26931,	0.14390,	0.06288,	-0.10731,	-0.39481,	-0.55073,	-0.73302,	-0.97916,	-1.07968,	-1.00756,	-0.93481,	-0.86645,	-0.92035,	-0.93660,	-0.93159,	-1.06808,	-1.06324,	-1.04279,	-1.02570,	-0.85802,	-0.62232,	-0.59491,	-0.67095,	-0.84238,	-0.85991,	-0.82396,	-0.92337,	-1.05462,	-1.20621,	-1.21928,	-1.18246,	-1.12246,	-1.01928,	-1.08346,	-1.01653,	-0.81754,	-0.61313,	-0.36018,	-0.22167,	-0.19296,	-0.05970,	0.09651,	0.09438,	0.01838,	-0.07767,	-0.15927,	-0.23258,	-0.43475,	-0.63241,	-0.75055,	-0.91408,	-0.89450,	-0.70608,	-0.62648,	-0.58018,	-0.62393,	-0.60439,	-0.55955,	-0.65442,	-0.71262,	-0.73634,	-0.75959,	-0.81757,	-0.93873,	-1.00529,	-1.12505
0.00000,	0.00000,	0.00000,	0.00000,	0.00000,	0.00000,	0.00000,	0.00000,	0.00000,	0.00000,	0.00000,	0.00000,	0.00000,	0.00000,	-1.04973,	-1.03001,	-1.03355,	-1.12846,	-1.17007,	-1.15561,	-1.24614,	-1.20672,	-1.17181,	-1.25528,	-1.21051,	-1.10826,	-1.03371,	-0.80147,	-0.69231,	-0.60537,	-0.37851,	-0.21340,	-0.04857,	0.08446,	-0.01060,	-0.09779,	-0.09730,	-0.09599,	0.03036,	0.04299,	0.07110,	0.14694,	0.19154,	0.25177,	0.20151,	0.15895,	0.15964,	0.17882,	0.22399,	0.21348,	0.27922,	0.32685,	0.07908,	-0.13375,	-0.31023,	-0.51180,	-0.52367,	-0.54147,	-0.74222,	-0.85703,	-0.99102,	-1.10019,	-1.07484,	-1.06855,	-0.99518,	-0.88585,	-0.92063,	-0.90104,	-0.84954,	-0.90532,	-0.89913,	-0.94386,	-0.99862,	-1.08039,	-1.21536,	-1.15295,	-1.15914,	-1.18180,	-1.12756,	-1.03669,	-0.91423,	-0.83256,	-0.69676,	-0.69389,	-0.87614,	-0.97185,	-0.98261,	-1.13771,	-1.22636,	-1.28497,	-1.35365,	-1.36199,	-1.38465,	-1.48709,	-1.52677,	-1.65864,	-1.69893,	-1.63647,	-1.70694,	-1.79132,	-1.75481,	-1.68268,	-1.46682,	-1.26014,	-1.11544,	-0.86524,	-0.76156,	-0.65670,	-0.73113,	-0.91708,	-1.03465,	-1.19740,	-1.43397,	-1.63634,	-1.63863,	-1.48652,	-1.42790,	-1.37258,	-1.31887,	-1.45825,	-1.51843,	-1.46068,	-1.42700,	-1.29973,	-1.10133,	-1.01169,	-0.84206,	-0.75510,	-0.68669,	-0.58085,	-0.60331,	-0.65449,	-0.60166,	-0.61153,	-0.60181,	-0.59114,	-0.69880,	-0.77569,	-0.95642,	-1.03084,	-1.12537,	-1.28367,	-1.36932,	-1.60137,	-1.80596,	-1.93420,	-1.91995,	-1.80210,	-1.81948,	-1.76174,	-1.47323,	-1.33149,	-1.17693,	-0.98971,	-1.00107,	-1.10967,	-1.17699,	-1.36200,	-1.47236,	-1.64763,	-1.83793,	-1.89977,	-1.98827,	-2.09099,	-2.03821,	-2.03055,	-2.05368,	-2.02786,	-2.16184,	-2.25129,	-2.44240,	-2.61567,	-2.83373,	-3.02981,	-2.97147,	-2.85809,	-2.72439,	-2.62909,	-2.56285,	-2.46185,	-2.47635,	-2.51569,	-2.37967,	-2.32786,	-2.22933,	-2.04198,	-1.92462,	-1.85444,	-1.69560,	-1.65176,	-1.53568,	-1.43140,	-1.35332,	-1.17628,	-1.10835,	-1.11742,	-1.04867,	-1.02343,	-0.94707,	-0.71246,	-0.58620,	-0.36626,	-0.28298,	-0.32614,	-0.31675,	-0.33731,	-0.19309,	-0.07917,	-0.02968,	0.08009,	0.27279,	0.49212,	0.57558,	0.52828,	0.58100,	0.56012,	0.60511,	0.82969,	0.98120,	0.98348,	1.08126,	1.10473,	1.16041,	1.19181,	1.17017,	1.20679,	1.18866,	1.09169,	1.08756,	1.11999,	1.10179,	1.20763,	1.16904,	1.23312,	1.26622,	1.24352,	1.23404,	1.07073,	0.94115,	0.78695,	0.61880,	0.49970,	0.37157,	0.30181,	0.14202,	-0.21556,	-0.45176,	-0.69899,	-0.90898,	-0.91487,	-0.90933,	-1.03999,	-1.08089,	-1.20954,	-1.30790,	-1.30912,	-1.42198,	-1.35646,	-1.21169,	-1.10600,	-0.93987,	-0.73703,	-0.72164,	-0.76318,	-0.87895,	-0.89544,	-0.89202,	-1.00560,	-1.10437,	-1.19664,	-1.13531,	-1.09208,	-1.12480,	-1.14041,	-1.17180,	-1.04228,	-0.82268,	-0.68524,	-0.46537,	-0.28934,	-0.18442,	0.07936,	0.24368,	0.15649,	0.11692,	-0.00184,	-0.21971,	-0.41534,	-0.68967,	-0.79493,	-0.76064,	-0.84903,	-0.89793,	-0.79455,	-0.68214,	-0.50907,	-0.45179,	-0.43710,	-0.42828,	-0.51308,	-0.52838,	-0.58127,	-0.62010,	-0.62347,	-0.73106,	-0.86932,	-1.03468
0.00000,	0.00000,	0.00000,	0.00000,	0.00000,	0.00000,	0.00000,	0.00000,	0.00000,	0.00000,	0.00000,	0.00000,	0.00000,	0.00000,	0.00000,	0.00000,	0.00000,	-1.07212,	-1.09860,	-1.15190,	-1.29497,	-1.30585,	-1.28327,	-1.24973,	-1.23348,	-1.21537,	-1.07150,	-0.83016,	-0.69601,	-0.56321,	-0.29507,	-0.09974,	-0.07376,	-0.07852,	-0.02454,	-0.05781,	-0.03768,	0.08598,	0.20360,	0.26443,	0.31692,	0.39143,	0.46709,	0.54107,	0.58271,	0.54034,	0.39164,	0.32527,	0.31609,	0.36768,	0.52871,	0.56984,	0.27253,	-0.01475,	-0.23551,	-0.35572,	-0.42339,	-0.62368,	-0.82891,	-0.95006,	-1.05505,	-1.12659,	-1.09760,	-1.03861,	-1.03673,	-1.03983,	-1.00748,	-1.02188,	-1.02648,	-0.95444,	-0.89983,	-0.90767,	-0.98122,	-1.10964,	-1.23277,	-1.18501,	-1.14971,	-1.16571,	-1.21413,	-1.16361,	-1.01855,	-0.87759,	-0.64438,	-0.59261,	-0.76488,	-0.84434,	-0.85413,	-0.93052,	-1.01201,	-1.17203,	-1.22852,	-1.29339,	-1.40344,	-1.51527,	-1.48093,	-1.47097,	-1.53974,	-1.63323,	-1.69797,	-1.77991,	-1.83503,	-1.71183,	-1.49145,	-1.27132,	-1.07052,	-0.84884,	-0.76570,	-0.73079,	-0.83242,	-0.94228,	-1.05524,	-1.18702,	-1.37462,	-1.54514,	-1.46347,	-1.28710,	-1.28736,	-1.29624,	-1.29624,	-1.37825,	-1.36821,	-1.41563,	-1.40455,	-1.28828,	-1.12391,	-0.99993,	-0.81942,	-0.67503,	-0.61257,	-0.59092,	-0.52212,	-0.47275,	-0.50517,	-0.44340,	-0.38535,	-0.37060,	-0.43174,	-0.53384,	-0.68424,	-0.78671,	-0.87761,	-0.99088,	-1.12516,	-1.35757,	-1.52795,	-1.64346,	-1.58819,	-1.50892,	-1.61077,	-1.57664,	-1.35123,	-1.25410,	-1.11845,	-1.07689,	-1.06126,	-1.09894,	-1.20771,	-1.41035,	-1.55074,	-1.66421,	-1.85201,	-2.06055,	-2.15805,	-2.15076,	-2.13671,	-2.07706,	-2.10027,	-2.17171,	-2.32997,	-2.39632,	-2.45462,	-2.56297,	-2.76065,	-2.91530,	-2.90824,	-2.82710,	-2.72261,	-2.70040,	-2.63858,	-2.57456,	-2.65017,	-2.73068,	-2.66772,	-2.63238,	-2.45507,	-2.35173,	-2.28157,	-2.17866,	-2.03132,	-1.91958,	-1.73305,	-1.54784,	-1.46154,	-1.42854,	-1.41684,	-1.32250,	-1.32998,	-1.27343,	-1.12829,	-0.94528,	-0.79682,	-0.60469,	-0.45935,	-0.46532,	-0.46367,	-0.43395,	-0.33598,	-0.26694,	-0.18012,	-0.00360,	0.27303,	0.47055,	0.46813,	0.41059,	0.52056,	0.57536,	0.74829,	0.89810,	0.99355,	1.09336,	1.19407,	1.23943,	1.32578,	1.43531,	1.49462,	1.37329,	1.17625,	1.07482,	0.93251,	1.02690,	1.18880,	1.32294,	1.33317,	1.38783,	1.49100,	1.52030,	1.45557,	1.27462,	1.07383,	0.85849,	0.72156,	0.61662,	0.52549,	0.44850,	0.23759,	-0.15507,	-0.45841,	-0.76223,	-0.89904,	-0.96767,	-1.04128,	-1.14637,	-1.26905,	-1.43642,	-1.53800,	-1.49003,	-1.51553,	-1.52847,	-1.47770,	-1.27039,	-1.13794,	-0.93025,	-0.76255,	-0.78441,	-0.86988,	-0.89133,	-0.86438,	-0.94059,	-1.05385,	-1.08585,	-1.06713,	-1.17700,	-1.29985,	-1.32505,	-1.24840,	-1.05756,	-0.86457,	-0.76775,	-0.56582,	-0.36519,	-0.15519,	0.06876,	0.14326,	0.13692,	0.12346,	-0.03117,	-0.29887,	-0.53465,	-0.75506,	-0.84748,	-0.83003,	-0.76661,	-0.82195,	-0.76115,	-0.51371,	-0.33157,	-0.31294,	-0.35464,	-0.36785,	-0.39987,	-0.41528,	-0.45338,	-0.53021,	-0.66040,	-0.81424,	-0.96256,	-1.12815
0.00000,	0.00000,	0.00000,	0.00000,	0.00000,	0.00000,	0.00000,	0.00000,	0.00000,	0.00000,	0.00000,	0.00000,	0.00000,	0.00000,	0.00000,	0.00000,	0.00000,	0.00000,	0.00000,	-1.19599,	-1.36327,	-1.37020,	-1.32690,	-1.28978,	-1.33098,	-1.28043,	-1.02299,	-0.74748,	-0.58854,	-0.50806,	-0.28500,	-0.09518,	-0.13108,	-0.12084,	0.08167,	0.15925,	0.23869,	0.32493,	0.37810,	0.46382,	0.50554,	0.49212,	0.51434,	0.57604,	0.65718,	0.71368,	0.56642,	0.47927,	0.48510,	0.49773,	0.62467,	0.68578,	0.42141,	0.15328,	-0.06226,	-0.23232,	-0.45431,	-0.72888,	-0.86592,	-0.98747,	-1.08556,	-1.19071,	-1.20000,	-1.11799,	-1.17643,	-1.20658,	-1.08943,	-1.04944,	-1.02626,	-0.99066,	-1.00329,	-0.93369,	-0.95623,	-1.11436,	-1.24323,	-1.21037,	-1.15921,	-1.09870,	-1.17760,	-1.21342,	-1.07656,	-0.97298,	-0.73372,	-0.56919,	-0.63359,	-0.64781,	-0.56888,	-0.61440,	-0.76239,	-0.95974,	-0.97392,	-1.07846,	-1.21969,	-1.34899,	-1.33398,	-1.27978,	-1.41125,	-1.57125,	-1.58926,	-1.64638,	-1.72368,	-1.71822,	-1.67776,	-1.47179,	-1.25910,	-1.07062,	-0.99419,	-0.96405,	-1.02329,	-1.00247,	-1.03586,	-1.16582,	-1.29803,	-1.46660,	-1.42470,	-1.22794,	-1.22398,	-1.26201,	-1.22147,	-1.29515,	-1.33839,	-1.41496,	-1.31692,	-1.19529,	-1.05142,	-0.93631,	-0.81782,	-0.63825,	-0.60829,	-0.62133,	-0.42510,	-0.21496,	-0.14855,	-0.07649,	-0.12708,	-0.12144,	-0.16125,	-0.29636,	-0.50684,	-0.67951,	-0.77945,	-0.81697,	-0.84865,	-1.05865,	-1.20622,	-1.35406,	-1.37161,	-1.29450,	-1.36957,	-1.37380,	-1.17460,	-1.12687,	-1.08099,	-1.08928,	-0.96766,	-0.98233,	-1.13231,	-1.36041,	-1.59889,	-1.70242,	-1.95493,	-2.29542,	-2.37803,	-2.29183,	-2.22438,	-2.15659,	-2.30839,	-2.41847,	-2.53977,	-2.58500,	-2.62002,	-2.70053,	-2.85257,	-2.91960,	-2.82893,	-2.80248,	-2.78037,	-2.85629,	-2.91997,	-2.89019,	-2.92392,	-3.00583,	-2.90946,	-2.87115,	-2.74220,	-2.69248,	-2.54693,	-2.40084,	-2.26459,	-2.13230,	-1.97156,	-1.68885,	-1.57711,	-1.60815,	-1.55928,	-1.38780,	-1.34761,	-1.28599,	-1.31335,	-1.24011,	-1.08956,	-0.91472,	-0.75062,	-0.72308,	-0.72545,	-0.64174,	-0.41952,	-0.33731,	-0.22248,	-0.03798,	0.15305,	0.35179,	0.43965,	0.45261,	0.66668,	0.77133,	0.92859,	1.03093,	1.19981,	1.37900,	1.45166,	1.44926,	1.43224,	1.54487,	1.58966,	1.36505,	1.13755,	1.08006,	0.99307,	1.14789,	1.23862,	1.33759,	1.41260,	1.49412,	1.60031,	1.61078,	1.46150,	1.26651,	1.15339,	0.93245,	0.80789,	0.71698,	0.55182,	0.45198,	0.29162,	-0.08897,	-0.38288,	-0.70369,	-0.90528,	-1.08089,	-1.11520,	-1.11399,	-1.24566,	-1.42545,	-1.59827,	-1.56257,	-1.56738,	-1.65230,	-1.66064,	-1.41697,	-1.22990,	-0.97700,	-0.83396,	-0.88828,	-0.94761,	-0.95185,	-0.90519,	-0.95031,	-1.07334,	-1.10173,	-1.03276,	-1.17718,	-1.33323,	-1.34874,	-1.32889,	-1.17917,	-0.94357,	-0.80691,	-0.56626,	-0.32992,	-0.16568,	-0.07739,	-0.01849,	0.06842,	0.06118,	-0.09247,	-0.41042,	-0.66538,	-0.81777,	-0.91150,	-0.88294,	-0.70158,	-0.66055,	-0.55263,	-0.35831,	-0.31158,	-0.36549,	-0.44271,	-0.47903,	-0.50108,	-0.52565,	-0.54880,	-0.54945,	-0.68714,	-0.88244,	-1.04838,	-1.29967
0.00000,	0.00000,	0.00000,	0.00000,	0.00000,	0.00000,	0.00000,	0.00000,	0.00000,	0.00000,	0.00000,	0.00000,	0.00000,	0.00000,	0.00000,	0.00000,	0.00000,	0.00000,	0.00000,	0.00000,	0.00000,	-1.31579,	-1.30923,	-1.35216,	-1.38806,	-1.27480,	-1.00999,	-0.73022,	-0.50691,	-0.44643,	-0.37282,	-0.28427,	-0.20255,	-0.07746,	0.15511,	0.28139,	0.39863,	0.43514,	0.52721,	0.71280,	0.72937,	0.65194,	0.66722,	0.64156,	0.68465,	0.82639,	0.73656,	0.62912,	0.69006,	0.73069,	0.81029,	0.79384,	0.56416,	0.31223,	0.06043,	-0.20531,	-0.56446,	-0.85834,	-0.99392,	-1.07788,	-1.09836,	-1.20236,	-1.31941,	-1.31661,	-1.27739,	-1.19867,	-1.09268,	-1.08269,	-1.09092,	-1.11250,	-1.08903,	-0.85073,	-0.83649,	-1.01556,	-1.10280,	-1.15235,	-1.15677,	-1.00614,	-1.07047,	-1.19507,	-1.06677,	-0.92572,	-0.68242,	-0.48124,	-0.41541,	-0.30417,	-0.20723,	-0.27049,	-0.48159,	-0.67011,	-0.79448,	-0.97247,	-1.08200,	-1.18445,	-1.26006,	-1.29025,	-1.37925,	-1.46294,	-1.49905,	-1.55859,	-1.65312,	-1.78943,	-1.88006,	-1.63874,	-1.47416,	-1.33431,	-1.15804,	-1.10122,	-1.15991,	-1.01322,	-0.97443,	-1.12184,	-1.22786,	-1.32450,	-1.28733,	-1.13328,	-1.17382,	-1.17800,	-1.14051,	-1.17602,	-1.28085,	-1.32154,	-1.25617,	-1.16012,	-0.97173,	-0.80756,	-0.77722,	-0.70988,	-0.67755,	-0.57223,	-0.30726,	0.01866,	0.17012,	0.21679,	0.09177,	0.14128,	0.11263,	-0.04737,	-0.21470,	-0.41742,	-0.59928,	-0.55678,	-0.51047,	-0.71097,	-0.84500,	-0.93800,	-1.00054,	-0.98592,	-1.09127,	-1.09320,	-1.03913,	-1.05109,	-1.12680,	-1.10806,	-1.00874,	-1.06278,	-1.21564,	-1.41739,	-1.73135,	-1.90134,	-2.15770,	-2.46080,	-2.59444,	-2.52174,	-2.46004,	-2.41730,	-2.60883,	-2.62427,	-2.67347,	-2.73339,	-2.70772,	-2.74085,	-2.94554,	-2.92814,	-2.75466,	-2.78921,	-2.90818,	-3.01514,	-3.12652,	-3.12035,	-3.18266,	-3.20794,	-3.15044,	-3.09204,	-3.03172,	-2.91837,	-2.75788,	-2.66137,	-2.53902,	-2.34438,	-2.18482,	-1.88332,	-1.74464,	-1.67241,	-1.61635,	-1.46488,	-1.38979,	-1.32347,	-1.46208,	-1.39167,	-1.22478,	-1.12052,	-0.94650,	-0.86377,	-0.93513,	-0.78918,	-0.46423,	-0.37055,	-0.26508,	-0.04411,	0.09646,	0.29642,	0.41181,	0.56151,	0.80018,	0.93760,	1.00771,	1.14029,	1.36069,	1.56508,	1.65066,	1.63920,	1.52194,	1.53524,	1.49469,	1.34758,	1.17214,	1.11813,	1.08089,	1.24962,	1.25296,	1.38908,	1.54641,	1.60939,	1.74031,	1.77330,	1.46746,	1.26958,	1.27960,	1.11192,	0.95656,	0.89321,	0.71289,	0.60171,	0.43165,	0.14062,	-0.17495,	-0.57203,	-0.93544,	-1.16342,	-1.16202,	-1.13119,	-1.25676,	-1.40850,	-1.64046,	-1.70812,	-1.75596,	-1.73350,	-1.70484,	-1.51102,	-1.31068,	-1.05346,	-0.98523,	-0.98942,	-0.93999,	-0.94566,	-0.88245,	-0.84208,	-1.01421,	-1.09086,	-1.00214,	-1.15086,	-1.35983,	-1.35803,	-1.35450,	-1.25273,	-1.06935,	-0.85538,	-0.56423,	-0.31548,	-0.23716,	-0.26265,	-0.22476,	-0.16061,	-0.18552,	-0.27105,	-0.54110,	-0.82119,	-0.97158,	-0.94558,	-0.82691,	-0.64548,	-0.56687,	-0.43931,	-0.33049,	-0.35497,	-0.42148,	-0.54691,	-0.57478,	-0.48850,	-0.55593,	-0.62431,	-0.55429,	-0.66964,	-0.91079,	-1.07862,	-1.35311
0.00000,	0.00000,	0.00000,	0.00000,	0.00000,	0.00000,	0.00000,	0.00000,	0.00000,	0.00000,	0.00000,	0.00000,	0.00000,	0.00000,	0.00000,	0.00000,	0.00000,	0.00000,	0.00000,	0.00000,	0.00000,	0.00000,	-1.38685,	-1.41574,	-1.35517,	-1.19495,	-0.98460,	-0.81903,	-0.58596,	-0.41860,	-0.36860,	-0.31922,	-0.12216,	0.02287,	0.21031,	0.32203,	0.45210,	0.54813,	0.72544,	0.95420,	0.97710,	0.88887,	0.89335,	0.87192,	0.88857,	0.90732,	0.80518,	0.77626,	0.90636,	0.92011,	0.92417,	0.81306,	0.54042,	0.23517,	-0.07294,	-0.29624,	-0.61127,	-0.88057,	-0.98816,	-1.02809,	-1.01140,	-1.05978,	-1.19809,	-1.28021,	-1.17614,	-1.06086,	-1.00738,	-1.06598,	-1.13842,	-1.08406,	-0.93282,	-0.65940,	-0.70019,	-0.93191,	-1.05768,	-1.12722,	-1.10735,	-1.00469,	-1.12517,	-1.22013,	-1.04234,	-0.86109,	-0.64432,	-0.44955,	-0.27567,	-0.05674,	-0.01193,	-0.06945,	-0.19509,	-0.38708,	-0.62665,	-0.88722,	-1.01065,	-1.04958,	-1.12921,	-1.23784,	-1.30517,	-1.39849,	-1.50515,	-1.55435,	-1.63795,	-1.73561,	-1.79894,	-1.59233,	-1.55371,	-1.49382,	-1.26235,	-1.09645,	-1.06777,	-0.98209,	-1.06263,	-1.18113,	-1.23249,	-1.28309,	-1.22877,	-1.10691,	-1.18008,	-1.13396,	-1.09632,	-1.01042,	-1.00267,	-1.05711,	-1.08381,	-1.06541,	-0.89780,	-0.63962,	-0.53667,	-0.55602,	-0.53749,	-0.36451,	-0.13103,	0.19979,	0.31766,	0.37957,	0.29922,	0.34603,	0.29512,	0.13797,	0.01039,	-0.12872,	-0.24553,	-0.21599,	-0.33858,	-0.53344,	-0.55693,	-0.57455,	-0.69664,	-0.78979,	-0.95133,	-0.97449,	-1.07218,	-1.10231,	-1.10898,	-1.10938,	-1.13247,	-1.26650,	-1.48676,	-1.65954,	-1.87608,	-2.03859,	-2.23078,	-2.45706,	-2.69829,	-2.67673,	-2.71097,	-2.67106,	-2.70666,	-2.61038,	-2.66293,	-2.79997,	-2.81489,	-2.80566,	-2.96135,	-2.94656,	-2.90653,	-2.97514,	-3.09898,	-3.18462,	-3.29008,	-3.27760,	-3.40215,	-3.43606,	-3.46423,	-3.39378,	-3.18896,	-2.96431,	-2.80456,	-2.77151,	-2.72793,	-2.46945,	-2.18930,	-1.91482,	-1.80565,	-1.68717,	-1.73302,	-1.60796,	-1.51105,	-1.38226,	-1.39514,	-1.27810,	-1.16388,	-1.16413,	-1.13500,	-1.05917,	-1.03569,	-0.84088,	-0.68571,	-0.64009,	-0.44930,	-0.16785,	-0.02509,	0.20531,	0.33860,	0.55504,	0.73830,	0.88260,	1.03070,	1.20229,	1.43014,	1.66889,	1.77819,	1.82121,	1.77410,	1.74111,	1.60825,	1.51479,	1.34695,	1.32067,	1.26859,	1.38098,	1.42922,	1.60349,	1.71899,	1.71847,	1.80065,	1.84738,	1.59865,	1.48099,	1.44420,	1.31521,	1.19379,	1.12736,	0.91458,	0.77314,	0.58802,	0.36920,	0.01610,	-0.47808,	-0.84846,	-1.05732,	-1.10898,	-1.16140,	-1.38195,	-1.54561,	-1.72559,	-1.80726,	-1.85544,	-1.72999,	-1.70344,	-1.55381,	-1.38177,	-1.16816,	-1.10108,	-1.03081,	-0.91011,	-0.92383,	-0.94750,	-0.89861,	-0.97122,	-1.01809,	-1.06483,	-1.26115,	-1.42811,	-1.41555,	-1.45976,	-1.40617,	-1.30300,	-1.08135,	-0.77907,	-0.52706,	-0.34994,	-0.32344,	-0.33044,	-0.32134,	-0.42579,	-0.46802,	-0.53764,	-0.69501,	-0.84382,	-0.79737,	-0.70703,	-0.59541,	-0.55774,	-0.46481,	-0.32597,	-0.31911,	-0.39763,	-0.54527,	-0.57760,	-0.42562,	-0.45590,	-0.52434,	-0.57470,	-0.79521,	-1.00224,	-1.11821,	-1.39680
0.00000,	0.00000,	0.00000,	0.00000,	0.00000,	0.00000,	0.00000,	0.00000,	0.00000,	0.00000,	0.00000,	0.00000,	0.00000,	0.00000,	0.00000,	0.00000,	0.00000,	0.00000,	0.00000,	0.00000,	0.00000,	0.00000,	-1.37776,	-1.45198,	-1.39353,	-1.17632,	-0.95394,	-0.85920,	-0.73783,	-0.55404,	-0.35539,	-0.21243,	0.03403,	0.19608,	0.37329,	0.53156,	0.62099,	0.69018,	0.88714,	1.07973,	1.12480,	1.17363,	1.20909,	1.17811,	1.17393,	1.09242,	1.05240,	1.04907,	1.11013,	1.02943,	0.91958,	0.76891,	0.48380,	0.13469,	-0.14459,	-0.33014,	-0.59779,	-0.76072,	-0.74791,	-0.71735,	-0.79653,	-0.92341,	-1.02459,	-1.14780,	-1.09602,	-0.99743,	-0.95644,	-0.95814,	-1.03794,	-0.95586,	-0.72770,	-0.56211,	-0.71065,	-0.90730,	-1.04994,	-1.14138,	-1.09584,	-1.05608,	-1.13595,	-1.18816,	-1.04826,	-0.84681,	-0.68835,	-0.49452,	-0.21476,	0.05187,	0.10644,	0.03051,	-0.10712,	-0.26136,	-0.41547,	-0.63578,	-0.85757,	-0.97671,	-1.02792,	-1.13690,	-1.23316,	-1.37306,	-1.51855,	-1.51620,	-1.57602,	-1.63558,	-1.60937,	-1.45808,	-1.51808,	-1.45684,	-1.19724,	-1.02712,	-0.98094,	-1.00992,	-1.10258,	-1.14839,	-1.24578,	-1.27905,	-1.24360,	-1.12026,	-1.09720,	-0.99739,	-0.89280,	-0.73343,	-0.74036,	-0.81399,	-0.81807,	-0.82692,	-0.77810,	-0.58635,	-0.39097,	-0.33589,	-0.29359,	-0.09199,	0.10374,	0.36151,	0.38767,	0.37929,	0.35832,	0.40484,	0.33028,	0.22558,	0.15877,	0.01955,	-0.03465,	-0.03055,	-0.20549,	-0.34999,	-0.38837,	-0.36998,	-0.56500,	-0.74598,	-0.88004,	-0.90685,	-0.97338,	-0.97089,	-1.02592,	-1.09836,	-1.16726,	-1.32076,	-1.63629,	-1.92366,	-2.08787,	-2.17201,	-2.30362,	-2.43900,	-2.67502,	-2.66341,	-2.74402,	-2.78566,	-2.71472,	-2.57317,	-2.69833,	-2.89222,	-2.89555,	-2.91505,	-3.04799,	-3.07361,	-3.07986,	-3.07412,	-3.21817,	-3.27919,	-3.41079,	-3.43799,	-3.56054,	-3.62170,	-3.64996,	-3.56093,	-3.34164,	-3.06340,	-2.80002,	-2.67611,	-2.64915,	-2.46108,	-2.17980,	-1.96120,	-1.93752,	-1.83559,	-1.90020,	-1.72608,	-1.54600,	-1.43399,	-1.35769,	-1.22174,	-1.19236,	-1.25681,	-1.29421,	-1.31032,	-1.24082,	-1.04006,	-0.97816,	-0.88765,	-0.70043,	-0.36392,	-0.15781,	0.09873,	0.30489,	0.54611,	0.72378,	0.91261,	1.05063,	1.17710,	1.43964,	1.76389,	1.93421,	1.98571,	1.99445,	2.02306,	1.86482,	1.77594,	1.63486,	1.64251,	1.59046,	1.55588,	1.60658,	1.78803,	1.79654,	1.73665,	1.84734,	1.89382,	1.75667,	1.73915,	1.70184,	1.67406,	1.50286,	1.36590,	1.09039,	0.84952,	0.66847,	0.49657,	0.17606,	-0.26212,	-0.63743,	-0.89481,	-1.01721,	-1.17242,	-1.48542,	-1.75801,	-1.94159,	-1.92559,	-1.93699,	-1.80401,	-1.79010,	-1.66367,	-1.46662,	-1.34613,	-1.32690,	-1.22450,	-1.11445,	-1.13813,	-1.15113,	-1.12647,	-1.13125,	-1.08398,	-1.12070,	-1.21047,	-1.35495,	-1.40096,	-1.50266,	-1.52027,	-1.44983,	-1.24349,	-0.96314,	-0.67471,	-0.44404,	-0.38065,	-0.34879,	-0.28264,	-0.37687,	-0.46839,	-0.47618,	-0.48298,	-0.62599,	-0.66133,	-0.61811,	-0.55224,	-0.51701,	-0.50346,	-0.39195,	-0.32093,	-0.39498,	-0.54106,	-0.51508,	-0.36871,	-0.43137,	-0.49713,	-0.64416,	-0.87811,	-1.08280,	-1.23861,	-1.49129
0.00000,	0.00000,	0.00000,	0.00000,	0.00000,	0.00000,	0.00000,	0.00000,	0.00000,	0.00000,	0.00000,	0.00000,	0.00000,	0.00000,	0.00000,	0.00000,	0.00000,	0.00000,	0.00000,	0.00000,	0.00000,	0.00000,	-1.33488,	-1.40147,	-1.36267,	-1.22008,	-1.01867,	-0.85108,	-0.78730,	-0.64750,	-0.32353,	-0.08703,	0.18935,	0.41289,	0.63686,	0.85566,	0.89331,	0.88103,	1.04797,	1.27098,	1.35949,	1.44264,	1.46569,	1.39556,	1.37341,	1.24920,	1.25097,	1.27228,	1.27786,	1.18713,	1.03348,	0.82621,	0.53329,	0.14918,	-0.11399,	-0.24938,	-0.48078,	-0.65044,	-0.62273,	-0.48097,	-0.59673,	-0.82520,	-0.91306,	-1.06288,	-1.08182,	-0.99925,	-0.95599,	-0.88689,	-0.95230,	-0.89542,	-0.64138,	-0.47330,	-0.61198,	-0.80550,	-0.98145,	-1.10590,	-1.07275,	-1.07440,	-1.12013,	-1.12492,	-0.98736,	-0.72483,	-0.55301,	-0.39099,	-0.11838,	0.10809,	0.14051,	0.08971,	-0.06145,	-0.24356,	-0.39432,	-0.51116,	-0.74504,	-0.95907,	-0.98835,	-1.07196,	-1.18944,	-1.33197,	-1.46988,	-1.43004,	-1.49509,	-1.58640,	-1.52235,	-1.34608,	-1.37030,	-1.33274,	-1.14828,	-1.06051,	-1.06661,	-1.14980,	-1.18568,	-1.12129,	-1.18493,	-1.14815,	-1.08143,	-0.98727,	-0.95742,	-0.86965,	-0.78371,	-0.58328,	-0.60376,	-0.70684,	-0.76217,	-0.72426,	-0.68271,	-0.58922,	-0.36226,	-0.20765,	-0.11844,	0.11340,	0.31250,	0.52274,	0.48261,	0.38324,	0.38020,	0.47762,	0.47493,	0.36992,	0.24732,	0.04336,	-0.01629,	-0.01175,	-0.13705,	-0.19025,	-0.21449,	-0.14825,	-0.29854,	-0.50939,	-0.66780,	-0.70724,	-0.78881,	-0.76410,	-0.88374,	-1.04895,	-1.24989,	-1.38724,	-1.66810,	-2.05568,	-2.23212,	-2.26161,	-2.37231,	-2.45421,	-2.63710,	-2.62214,	-2.72151,	-2.85747,	-2.78605,	-2.61832,	-2.69811,	-2.91382,	-2.95519,	-3.02136,	-3.17508,	-3.21925,	-3.21454,	-3.12567,	-3.24582,	-3.28647,	-3.38999,	-3.46772,	-3.63503,	-3.70434,	-3.76638,	-3.65265,	-3.43696,	-3.15088,	-2.91956,	-2.68598,	-2.53813,	-2.42472,	-2.20365,	-2.01376,	-2.04621,	-1.95306,	-1.96092,	-1.72330,	-1.47983,	-1.42067,	-1.36707,	-1.23978,	-1.17426,	-1.26874,	-1.37864,	-1.48262,	-1.45907,	-1.26845,	-1.19422,	-1.01205,	-0.79196,	-0.41161,	-0.10460,	0.14750,	0.32644,	0.57589,	0.72455,	0.95394,	1.09206,	1.17658,	1.34233,	1.70105,	2.00255,	2.05317,	2.06626,	2.16861,	2.03573,	1.96409,	1.87235,	1.89692,	1.85086,	1.71270,	1.72222,	1.90340,	1.93682,	1.85157,	1.91641,	1.92744,	1.81391,	1.85076,	1.84795,	1.90924,	1.75085,	1.58361,	1.31955,	1.00071,	0.74213,	0.56646,	0.23160,	-0.13222,	-0.47468,	-0.77476,	-1.04488,	-1.28973,	-1.54983,	-1.86763,	-2.08087,	-1.98752,	-1.98570,	-1.88683,	-1.89587,	-1.80801,	-1.59961,	-1.55359,	-1.58669,	-1.47865,	-1.32470,	-1.32845,	-1.34672,	-1.34745,	-1.35198,	-1.23115,	-1.19189,	-1.14965,	-1.21007,	-1.24076,	-1.28543,	-1.31962,	-1.31227,	-1.15367,	-0.96200,	-0.70621,	-0.47747,	-0.41826,	-0.43055,	-0.34859,	-0.30468,	-0.38230,	-0.41516,	-0.34820,	-0.48614,	-0.57369,	-0.53929,	-0.48887,	-0.44041,	-0.49127,	-0.45156,	-0.36662,	-0.38897,	-0.50975,	-0.50977,	-0.43979,	-0.57039,	-0.63913,	-0.80745,	-1.00131,	-1.16424,	-1.32221,	-1.48026
0.00000,	0.00000,	0.00000,	0.00000,	0.00000,	0.00000,	0.00000,	0.00000,	0.00000,	0.00000,	0.00000,	0.00000,	0.00000,	0.00000,	0.00000,	0.00000,	0.00000,	0.00000,	0.00000,	0.00000,	0.00000,	0.00000,	0.00000,	-1.30125,	-1.18673,	-1.08172,	-0.93144,	-0.83045,	-0.72195,	-0.51968,	-0.22826,	0.08882,	0.37058,	0.58560,	0.88396,	1.12214,	1.19393,	1.23168,	1.26396,	1.42229,	1.53219,	1.63267,	1.66962,	1.63124,	1.63457,	1.47763,	1.39905,	1.44986,	1.43805,	1.29181,	1.13319,	0.91562,	0.56926,	0.19748,	-0.00511,	-0.11796,	-0.24225,	-0.36002,	-0.35725,	-0.28264,	-0.42600,	-0.64047,	-0.81346,	-0.92787,	-0.95321,	-0.96464,	-0.94432,	-0.89458,	-0.90736,	-0.75274,	-0.54796,	-0.43651,	-0.51238,	-0.66062,	-0.85584,	-1.01588,	-0.98157,	-0.98726,	-1.07298,	-1.04840,	-0.87700,	-0.63246,	-0.43477,	-0.27317,	-0.11678,	0.03785,	0.12381,	0.10563,	0.03993,	-0.12434,	-0.34067,	-0.51955,	-0.75981,	-0.89034,	-0.93397,	-0.96000,	-1.03505,	-1.24628,	-1.41297,	-1.42954,	-1.50643,	-1.50439,	-1.41170,	-1.25604,	-1.21388,	-1.20361,	-1.10637,	-1.07866,	-1.09137,	-1.20601,	-1.26795,	-1.13669,	-1.07048,	-1.02510,	-0.95280,	-0.88731,	-0.93040,	-0.86429,	-0.69947,	-0.49103,	-0.47067,	-0.55785,	-0.66190,	-0.62435,	-0.57775,	-0.41091,	-0.22790,	-0.03130,	0.15026,	0.32326,	0.49643,	0.62677,	0.56473,	0.54853,	0.54750,	0.55740,	0.59601,	0.49161,	0.32030,	0.05896,	0.02084,	0.02617,	-0.10277,	-0.10910,	-0.03263,	0.03386,	-0.05207,	-0.21297,	-0.42144,	-0.52365,	-0.56432,	-0.56977,	-0.68392,	-0.86433,	-1.15663,	-1.33516,	-1.65414,	-1.97345,	-2.22187,	-2.29762,	-2.36148,	-2.48392,	-2.62382,	-2.61822,	-2.74648,	-2.85400,	-2.76978,	-2.65871,	-2.68862,	-2.91495,	-2.99093,	-3.08476,	-3.17854,	-3.23323,	-3.29581,	-3.24580,	-3.25337,	-3.27797,	-3.35343,	-3.43934,	-3.70006,	-3.85238,	-3.84335,	-3.66964,	-3.37417,	-3.04355,	-2.87436,	-2.63550,	-2.51179,	-2.32868,	-2.15460,	-2.05289,	-2.02418,	-1.96880,	-1.98309,	-1.76749,	-1.54161,	-1.41839,	-1.32229,	-1.29399,	-1.21224,	-1.32053,	-1.45670,	-1.59121,	-1.53543,	-1.33364,	-1.25563,	-1.06738,	-0.74493,	-0.38264,	-0.09252,	0.13177,	0.24225,	0.42489,	0.66483,	0.96784,	1.17112,	1.28817,	1.34332,	1.64006,	1.87153,	2.03670,	2.13781,	2.23773,	2.20999,	2.10539,	1.99784,	2.03763,	1.94850,	1.81914,	1.87899,	1.99005,	2.04577,	1.93679,	1.92315,	1.87087,	1.84068,	1.96522,	1.98893,	2.01097,	1.89494,	1.69495,	1.41453,	1.10530,	0.80250,	0.51929,	0.20994,	-0.06399,	-0.33647,	-0.58440,	-0.94660,	-1.28172,	-1.60109,	-1.83443,	-2.00777,	-2.00806,	-1.96966,	-1.92393,	-2.01746,	-1.97492,	-1.83419,	-1.78687,	-1.73794,	-1.68061,	-1.53161,	-1.50993,	-1.52505,	-1.53520,	-1.48187,	-1.28951,	-1.22076,	-1.17727,	-1.11601,	-1.06271,	-1.04029,	-1.02097,	-1.02935,	-1.01290,	-0.91713,	-0.68659,	-0.49372,	-0.36689,	-0.35911,	-0.28840,	-0.26871,	-0.29162,	-0.24205,	-0.21353,	-0.32088,	-0.46006,	-0.51618,	-0.46312,	-0.44047,	-0.50141,	-0.43643,	-0.42881,	-0.44460,	-0.50862,	-0.53667,	-0.55842,	-0.73031,	-0.76866,	-0.91238,	-1.09804,	-1.17680,	-1.28330,	-1.41143
0.00000,	0.00000,	0.00000,	0.00000,	0.00000,	0.00000,	0.00000,	-1.17263,	-1.28033,	-1.17217,	-1.14925,	0.00000,	0.00000,	0.00000,	0.00000,	0.00000,	0.00000,	0.00000,	0.00000,	0.00000,	0.00000,	0.00000,	0.00000,	-1.21853,	-1.06672,	-0.90062,	-0.75085,	-0.65286,	-0.44532,	-0.18987,	-0.01254,	0.24941,	0.48185,	0.70619,	1.07528,	1.32938,	1.45486,	1.55896,	1.46876,	1.49209,	1.54474,	1.65544,	1.73569,	1.70849,	1.72998,	1.58895,	1.45112,	1.44099,	1.38344,	1.22800,	1.09134,	1.00081,	0.75855,	0.36739,	0.15003,	-0.06589,	-0.20109,	-0.20031,	-0.15563,	-0.09931,	-0.19945,	-0.38268,	-0.63477,	-0.71686,	-0.74650,	-0.81002,	-0.80490,	-0.84640,	-0.87183,	-0.68586,	-0.57313,	-0.51631,	-0.50280,	-0.52486,	-0.68333,	-0.94764,	-0.97086,	-0.92055,	-0.95448,	-0.93727,	-0.81906,	-0.61696,	-0.41682,	-0.17034,	0.01081,	0.05029,	0.11761,	0.07562,	0.02274,	-0.07214,	-0.32238,	-0.57226,	-0.75857,	-0.81318,	-0.87621,	-0.86292,	-0.91415,	-1.09867,	-1.23131,	-1.34760,	-1.50153,	-1.49452,	-1.41947,	-1.29125,	-1.21810,	-1.21235,	-1.16116,	-1.20984,	-1.24248,	-1.32044,	-1.35153,	-1.21090,	-1.09178,	-1.04851,	-1.00859,	-0.94898,	-0.91799,	-0.87834,	-0.68697,	-0.49136,	-0.50099,	-0.51284,	-0.54055,	-0.42236,	-0.26248,	-0.02014,	0.08520,	0.22341,	0.37986,	0.50111,	0.71194,	0.82138,	0.81423,	0.90720,	0.85805,	0.70775,	0.69353,	0.61295,	0.48785,	0.18084,	0.09014,	0.08691,	-0.00894,	-0.00458,	0.05952,	0.10849,	0.06720,	0.00318,	-0.04624,	-0.22123,	-0.35660,	-0.46747,	-0.68725,	-0.86965,	-1.12893,	-1.30090,	-1.55471,	-1.74013,	-2.04995,	-2.22909,	-2.37538,	-2.58099,	-2.61479,	-2.59297,	-2.73351,	-2.83152,	-2.80410,	-2.75938,	-2.76788,	-2.95784,	-2.99825,	-3.11242,	-3.17862,	-3.24704,	-3.35875,	-3.41686,	-3.45864,	-3.46703,	-3.50413,	-3.54333,	-3.66811,	-3.86609,	-3.85023,	-3.60857,	-3.33731,	-2.99448,	-2.82096,	-2.62989,	-2.50941,	-2.24954,	-2.10054,	-2.02633,	-1.92634,	-1.86799,	-1.83789,	-1.70247,	-1.53668,	-1.35636,	-1.23799,	-1.29229,	-1.25643,	-1.38106,	-1.46647,	-1.59367,	-1.54782,	-1.34533,	-1.22252,	-1.03083,	-0.72045,	-0.43821,	-0.26033,	-0.10932,	0.09734,	0.23612,	0.49297,	0.85865,	1.05766,	1.25281,	1.32564,	1.55800,	1.71877,	1.96666,	2.15928,	2.26667,	2.28099,	2.10860,	2.02460,	2.09464,	1.99425,	1.90497,	1.96299,	2.00710,	2.06094,	1.91036,	1.84202,	1.69559,	1.66263,	1.85498,	1.95545,	1.97352,	1.82480,	1.58151,	1.30923,	1.06902,	0.91441,	0.58795,	0.20224,	-0.07795,	-0.40712,	-0.62967,	-0.93553,	-1.22607,	-1.47076,	-1.55908,	-1.71271,	-1.86758,	-1.87335,	-1.88440,	-1.95303,	-1.90046,	-1.83459,	-1.80881,	-1.74012,	-1.74943,	-1.66012,	-1.65892,	-1.64537,	-1.64228,	-1.57651,	-1.38470,	-1.32523,	-1.29879,	-1.22773,	-1.15619,	-1.06264,	-0.96200,	-0.79618,	-0.74994,	-0.79089,	-0.65683,	-0.63907,	-0.54138,	-0.41708,	-0.28296,	-0.24681,	-0.20696,	-0.09733,	-0.10737,	-0.20109,	-0.39300,	-0.48281,	-0.36654,	-0.34060,	-0.42895,	-0.42332,	-0.56733,	-0.63275,	-0.66483,	-0.66870,	-0.70940,	-0.92109,	-0.94967,	-1.00568,	-1.09625,	-1.14749,	-1.27853,	-1.42395
0.00000,	-0.94123,	-1.03876,	-1.04263,	-1.02539,	-1.04500,	-1.09623,	-1.08084,	-1.16396,	-1.13663,	-1.17242,	-1.27991,	-1.26086,	-1.22671,	0.00000,	0.00000,	0.00000,	0.00000,	0.00000,	0.00000,	0.00000,	0.00000,	0.00000,	0.00000,	-0.88586,	-0.72101,	-0.68016,	-0.54712,	-0.24785,	-0.00088,	0.15326,	0.41866,	0.65582,	0.83165,	1.09351,	1.38101,	1.53657,	1.59478,	1.53448,	1.56867,	1.62038,	1.64268,	1.68719,	1.69070,	1.72737,	1.57449,	1.41254,	1.46205,	1.41453,	1.21948,	1.08713,	1.08075,	0.99571,	0.63895,	0.29391,	0.03355,	-0.05190,	-0.02966,	-0.05814,	0.02983,	0.05497,	-0.14348,	-0.43727,	-0.51811,	-0.56055,	-0.66989,	-0.75533,	-0.81008,	-0.82910,	-0.75690,	-0.68073,	-0.58862,	-0.49762,	-0.50592,	-0.68521,	-0.92123,	-0.93108,	-0.85077,	-0.83180,	-0.71904,	-0.58713,	-0.46655,	-0.33049,	-0.08316,	0.16750,	0.17810,	0.07459,	-0.01897,	0.02319,	-0.03476,	-0.34474,	-0.59468,	-0.64836,	-0.74000,	-0.86803,	-0.83957,	-0.83249,	-0.94531,	-1.09956,	-1.24795,	-1.41653,	-1.54658,	-1.50133,	-1.31784,	-1.20216,	-1.23863,	-1.31460,	-1.38215,	-1.40955,	-1.46487,	-1.47676,	-1.25926,	-1.04568,	-1.03806,	-1.04578,	-0.98783,	-0.84748,	-0.75066,	-0.64779,	-0.46374,	-0.33872,	-0.29457,	-0.35318,	-0.23591,	0.05666,	0.28549,	0.33931,	0.45355,	0.62166,	0.73694,	0.89534,	1.00190,	1.10248,	1.16621,	1.09377,	0.98139,	0.99034,	0.90952,	0.70110,	0.39300,	0.26913,	0.23136,	0.10436,	0.13425,	0.25439,	0.24576,	0.14963,	0.11128,	0.20929,	0.09191,	-0.16069,	-0.38026,	-0.56695,	-0.80786,	-1.18878,	-1.43035,	-1.53188,	-1.63837,	-1.96084,	-2.17495,	-2.34738,	-2.58621,	-2.63887,	-2.62785,	-2.69062,	-2.86124,	-2.92086,	-2.82573,	-2.76471,	-2.90685,	-3.04395,	-3.15554,	-3.19676,	-3.28496,	-3.45061,	-3.54130,	-3.53300,	-3.56465,	-3.62870,	-3.61301,	-3.56894,	-3.68892,	-3.75038,	-3.60335,	-3.30838,	-2.97850,	-2.88010,	-2.79192,	-2.56960,	-2.28236,	-2.16727,	-2.07832,	-1.90158,	-1.79541,	-1.75836,	-1.66480,	-1.43312,	-1.28187,	-1.22640,	-1.23865,	-1.17698,	-1.28835,	-1.48363,	-1.62027,	-1.56287,	-1.37644,	-1.28792,	-1.08941,	-0.69557,	-0.46161,	-0.38508,	-0.27969,	-0.00443,	0.14391,	0.31025,	0.58988,	0.88043,	1.19514,	1.26860,	1.39225,	1.59550,	1.87062,	2.06449,	2.19302,	2.25007,	2.07176,	1.95745,	1.98527,	1.97614,	1.88893,	1.84170,	1.91754,	2.02788,	1.88405,	1.67348,	1.44796,	1.41508,	1.63530,	1.75752,	1.83232,	1.81903,	1.57885,	1.25484,	1.01056,	0.92334,	0.65972,	0.22722,	-0.16851,	-0.46241,	-0.61061,	-0.90817,	-1.24309,	-1.36509,	-1.34016,	-1.49472,	-1.67734,	-1.67473,	-1.67074,	-1.72439,	-1.72011,	-1.62340,	-1.63816,	-1.71909,	-1.74811,	-1.64883,	-1.66211,	-1.77654,	-1.83713,	-1.74857,	-1.53647,	-1.47472,	-1.43058,	-1.26217,	-1.21107,	-1.18130,	-1.05645,	-0.76321,	-0.56433,	-0.62931,	-0.67759,	-0.74753,	-0.63096,	-0.49325,	-0.42235,	-0.34074,	-0.21914,	-0.12707,	-0.13960,	-0.18836,	-0.35177,	-0.45401,	-0.36922,	-0.27644,	-0.36244,	-0.51143,	-0.71338,	-0.75176,	-0.74002,	-0.79191,	-0.86284,	-1.02295,	-1.02668,	-1.06004,	-1.12566,	-1.09816,	-1.20212,	-1.39914
-0.64119,	-0.78119,	-0.88949,	-0.96787,	-1.05563,	-1.04747,	-1.02727,	-1.05895,	-1.10528,	-0.97883,	-1.00981,	-1.16333,	-1.19520,	-1.19350,	-1.20738,	0.00000,	0.00000,	0.00000,	0.00000,	0.00000,	0.00000,	0.00000,	0.00000,	0.00000,	-0.84292,	-0.58017,	-0.57735,	-0.55509,	-0.26832,	0.02490,	0.25521,	0.53833,	0.75395,	0.92308,	1.08211,	1.27573,	1.38554,	1.50755,	1.56976,	1.57076,	1.62210,	1.74487,	1.82684,	1.83786,	1.88381,	1.74122,	1.58152,	1.59720,	1.49079,	1.33662,	1.25864,	1.16488,	1.03931,	0.81825,	0.49053,	0.18876,	0.13694,	0.24429,	0.21195,	0.21087,	0.24548,	0.07855,	-0.21485,	-0.37790,	-0.52600,	-0.64198,	-0.74187,	-0.82511,	-0.86574,	-0.77417,	-0.61874,	-0.60386,	-0.58054,	-0.51286,	-0.60673,	-0.75543,	-0.71319,	-0.62237,	-0.59538,	-0.49876,	-0.42513,	-0.29084,	-0.13564,	-0.02161,	0.11196,	0.20202,	0.09208,	-0.08517,	-0.01831,	0.03398,	-0.15762,	-0.43045,	-0.48983,	-0.59491,	-0.76597,	-0.78311,	-0.79835,	-0.85966,	-0.98179,	-1.17372,	-1.39510,	-1.53474,	-1.39855,	-1.24780,	-1.19913,	-1.17296,	-1.20917,	-1.29146,	-1.32705,	-1.37970,	-1.38136,	-1.16330,	-0.99093,	-0.95668,	-0.87081,	-0.84295,	-0.78568,	-0.58543,	-0.41068,	-0.26287,	-0.07256,	0.05560,	0.05445,	0.04017,	0.22567,	0.43814,	0.51412,	0.63256,	0.78626,	0.91796,	1.08110,	1.11274,	1.14999,	1.20445,	1.28827,	1.25339,	1.22012,	1.19257,	1.04251,	0.72701,	0.59096,	0.53569,	0.36631,	0.34059,	0.38145,	0.34557,	0.29777,	0.20856,	0.18011,	0.15740,	0.05343,	-0.20748,	-0.40868,	-0.68049,	-1.07717,	-1.43662,	-1.59687,	-1.67235,	-1.93667,	-2.14711,	-2.35011,	-2.58013,	-2.60529,	-2.63742,	-2.73995,	-2.92474,	-2.87405,	-2.74983,	-2.76380,	-2.85050,	-2.90468,	-3.01206,	-3.05687,	-3.15218,	-3.32728,	-3.42923,	-3.48115,	-3.54295,	-3.53193,	-3.50350,	-3.55474,	-3.62480,	-3.59797,	-3.58173,	-3.37454,	-3.04775,	-2.86226,	-2.81354,	-2.63338,	-2.33231,	-2.19151,	-2.12533,	-1.99385,	-1.87696,	-1.74070,	-1.60575,	-1.39289,	-1.27829,	-1.13531,	-1.10751,	-1.13383,	-1.22338,	-1.36620,	-1.52804,	-1.47877,	-1.30829,	-1.25060,	-1.07074,	-0.72815,	-0.49556,	-0.28452,	-0.14576,	-0.01891,	0.07561,	0.28801,	0.49130,	0.76162,	1.12457,	1.31763,	1.39185,	1.50791,	1.77422,	1.99138,	2.12409,	2.15297,	1.97160,	1.89840,	1.88976,	1.83058,	1.70357,	1.72659,	1.86100,	1.88846,	1.75390,	1.63426,	1.43272,	1.41223,	1.64136,	1.77433,	1.88909,	1.88782,	1.62960,	1.36634,	1.09897,	0.83642,	0.55248,	0.26740,	-0.11590,	-0.40773,	-0.51715,	-0.72383,	-1.11448,	-1.34117,	-1.31913,	-1.39270,	-1.49918,	-1.51253,	-1.52910,	-1.54207,	-1.56512,	-1.52772,	-1.61515,	-1.70555,	-1.71548,	-1.71701,	-1.78059,	-1.85430,	-1.91426,	-1.82005,	-1.54989,	-1.40365,	-1.31282,	-1.16801,	-1.21473,	-1.18996,	-1.02905,	-0.83244,	-0.65601,	-0.58928,	-0.66329,	-0.80364,	-0.69083,	-0.48742,	-0.43952,	-0.45280,	-0.33934,	-0.21825,	-0.20833,	-0.27455,	-0.44928,	-0.50426,	-0.42151,	-0.36580,	-0.48826,	-0.60345,	-0.70802,	-0.79247,	-0.81176,	-0.77704,	-0.77575,	-0.88455,	-0.86288,	-0.89716,	-1.00588,	-1.03591,	-1.18377,	-1.31647
-0.57786,	-0.59817,	-0.70322,	-0.88594,	-0.92917,	-0.82974,	-0.85748,	-0.99012,	-1.02161,	-0.79489,	-0.79441,	-0.93405,	-1.00454,	-1.07694,	-1.16626,	-1.15633,	0.00000,	0.00000,	0.00000,	0.00000,	0.00000,	0.00000,	0.00000,	0.00000,	0.00000,	-0.65117,	-0.53956,	-0.42240,	-0.17963,	0.13242,	0.39120,	0.62289,	0.91031,	1.13433,	1.22478,	1.25286,	1.34726,	1.51219,	1.51532,	1.45238,	1.53595,	1.77110,	1.87111,	1.88695,	1.97764,	1.90485,	1.72125,	1.63717,	1.51878,	1.40659,	1.39114,	1.25611,	1.04603,	0.89535,	0.65720,	0.42448,	0.36547,	0.48409,	0.48950,	0.46171,	0.44721,	0.29824,	0.02278,	-0.22590,	-0.35114,	-0.42980,	-0.57050,	-0.75834,	-0.79722,	-0.59014,	-0.44102,	-0.53011,	-0.59223,	-0.49425,	-0.50451,	-0.55544,	-0.44979,	-0.36124,	-0.37128,	-0.31485,	-0.21197,	-0.04992,	0.10466,	0.08572,	0.00409,	0.05726,	0.01210,	-0.08955,	-0.06417,	0.00164,	-0.02991,	-0.21698,	-0.27150,	-0.38475,	-0.53827,	-0.64999,	-0.65421,	-0.70340,	-0.86493,	-1.11472,	-1.34769,	-1.37778,	-1.28467,	-1.26355,	-1.27645,	-1.15989,	-1.13472,	-1.25898,	-1.31148,	-1.35054,	-1.36141,	-1.19200,	-1.00920,	-0.91285,	-0.74263,	-0.65411,	-0.65194,	-0.43636,	-0.24148,	-0.09606,	0.08367,	0.22972,	0.36946,	0.40259,	0.55766,	0.70422,	0.81209,	0.86149,	1.03035,	1.24148,	1.41892,	1.39072,	1.33336,	1.47555,	1.62884,	1.58162,	1.46966,	1.44027,	1.35104,	1.04393,	0.91949,	0.84480,	0.60620,	0.44632,	0.41084,	0.37606,	0.40792,	0.39738,	0.25513,	0.24300,	0.22318,	0.00246,	-0.22952,	-0.57510,	-0.90562,	-1.26666,	-1.46790,	-1.66599,	-1.88335,	-2.09615,	-2.26749,	-2.41509,	-2.47618,	-2.59221,	-2.77352,	-2.81236,	-2.70302,	-2.68368,	-2.82898,	-2.88360,	-2.83018,	-2.93225,	-2.97000,	-3.06469,	-3.25219,	-3.36205,	-3.39437,	-3.44598,	-3.44205,	-3.39968,	-3.52885,	-3.58335,	-3.50038,	-3.47250,	-3.32721,	-3.11779,	-2.86259,	-2.77897,	-2.58194,	-2.34230,	-2.12591,	-2.08893,	-2.02350,	-1.84719,	-1.64151,	-1.48174,	-1.38727,	-1.22918,	-1.01020,	-1.01530,	-1.13937,	-1.21104,	-1.26353,	-1.45198,	-1.41426,	-1.25713,	-1.16922,	-0.98067,	-0.67610,	-0.42251,	-0.17408,	0.00366,	0.01828,	0.04567,	0.26123,	0.45749,	0.67227,	0.88165,	1.14343,	1.30341,	1.46859,	1.65038,	1.86272,	1.95708,	1.95813,	1.89237,	1.84094,	1.74833,	1.52233,	1.45202,	1.58405,	1.66817,	1.56591,	1.43032,	1.43568,	1.33583,	1.39697,	1.61354,	1.69712,	1.77152,	1.78876,	1.61095,	1.40606,	1.19781,	0.84198,	0.48580,	0.25342,	-0.06366,	-0.31083,	-0.46811,	-0.57609,	-0.88773,	-1.11610,	-1.18282,	-1.19086,	-1.24046,	-1.33441,	-1.31337,	-1.26454,	-1.28532,	-1.37575,	-1.45739,	-1.48828,	-1.61912,	-1.81883,	-1.96632,	-1.93937,	-1.93060,	-1.81826,	-1.52835,	-1.35070,	-1.25467,	-1.12258,	-1.13680,	-1.09931,	-0.90070,	-0.80431,	-0.78416,	-0.68918,	-0.69560,	-0.80734,	-0.80726,	-0.63637,	-0.53322,	-0.48522,	-0.38630,	-0.27352,	-0.28288,	-0.45307,	-0.56511,	-0.54111,	-0.47379,	-0.53189,	-0.63324,	-0.58980,	-0.62733,	-0.77281,	-0.87107,	-0.81057,	-0.74989,	-0.77511,	-0.70312,	-0.71660,	-0.83457,	-0.90699,	-1.02220,	-1.09810
-0.66628,	-0.69244,	-0.82664,	-0.90114,	-0.77579,	-0.72000,	-0.84855,	-0.88067,	-0.84295,	-0.68260,	-0.69046,	-0.81684,	-0.90541,	-0.99937,	-1.18390,	-1.23081,	0.00000,	0.00000,	0.00000,	0.00000,	0.00000,	0.00000,	0.00000,	0.00000,	0.00000,	-0.74207,	-0.60719,	-0.32823,	-0.09310,	0.15621,	0.32728,	0.49859,	0.88911,	1.12398,	1.16999,	1.21828,	1.38364,	1.43183,	1.29043,	1.37746,	1.63246,	1.84718,	1.86661,	1.83426,	1.94794,	1.99928,	1.80932,	1.64722,	1.53495,	1.39396,	1.39865,	1.37461,	1.22581,	1.07084,	0.86222,	0.79362,	0.80362,	0.78600,	0.68422,	0.62903,	0.56861,	0.38801,	0.09505,	-0.15162,	-0.15545,	-0.25530,	-0.51411,	-0.70288,	-0.63163,	-0.41544,	-0.35954,	-0.35061,	-0.32580,	-0.33251,	-0.43050,	-0.51039,	-0.43917,	-0.33838,	-0.35745,	-0.29992,	-0.13057,	-0.01046,	0.14024,	0.18588,	0.09304,	0.04296,	-0.01713,	0.04611,	0.14136,	0.10035,	-0.00609,	-0.14289,	-0.15789,	-0.27317,	-0.39612,	-0.54428,	-0.49354,	-0.60131,	-0.88561,	-1.07276,	-1.14299,	-1.14411,	-1.25660,	-1.26503,	-1.15319,	-1.03900,	-1.11000,	-1.32105,	-1.42535,	-1.37827,	-1.32329,	-1.17383,	-0.94637,	-0.84764,	-0.67939,	-0.43531,	-0.27004,	-0.10244,	-0.02049,	0.12678,	0.37783,	0.47227,	0.57745,	0.70139,	0.91095,	0.95806,	1.00735,	0.96640,	1.17651,	1.42408,	1.53615,	1.56351,	1.60968,	1.78103,	1.80206,	1.75832,	1.75835,	1.67044,	1.48229,	1.16898,	0.99795,	0.92648,	0.74165,	0.52644,	0.44925,	0.34189,	0.33703,	0.46864,	0.46057,	0.41374,	0.28383,	0.09261,	-0.02495,	-0.40207,	-0.76968,	-1.10866,	-1.29914,	-1.64557,	-1.87449,	-2.05686,	-2.11404,	-2.19831,	-2.43082,	-2.61002,	-2.69126,	-2.61713,	-2.64883,	-2.71847,	-2.74719,	-2.75221,	-2.75122,	-2.87606,	-2.98021,	-3.07268,	-3.21181,	-3.31074,	-3.28780,	-3.39160,	-3.54184,	-3.50108,	-3.48326,	-3.49830,	-3.46905,	-3.37650,	-3.11894,	-3.02830,	-2.91471,	-2.86204,	-2.61736,	-2.44138,	-2.18814,	-2.13755,	-2.05663,	-1.82665,	-1.70383,	-1.56727,	-1.42932,	-1.23100,	-1.12199,	-1.15334,	-1.13250,	-1.15471,	-1.22240,	-1.41581,	-1.46274,	-1.33790,	-1.14840,	-0.91591,	-0.59266,	-0.37648,	-0.28621,	-0.09324,	0.07700,	0.17320,	0.34943,	0.53288,	0.79147,	0.83432,	0.96557,	1.15746,	1.42898,	1.52995,	1.65583,	1.68954,	1.72370,	1.78180,	1.62422,	1.40976,	1.20415,	1.25826,	1.33504,	1.32768,	1.32587,	1.25748,	1.23658,	1.21205,	1.29174,	1.45457,	1.52099,	1.53621,	1.60249,	1.51078,	1.26928,	1.15901,	0.97697,	0.64974,	0.34524,	0.01074,	-0.11734,	-0.29423,	-0.45448,	-0.74108,	-0.92673,	-1.08028,	-1.13219,	-1.21329,	-1.35953,	-1.28290,	-1.26273,	-1.30302,	-1.34799,	-1.31460,	-1.34718,	-1.60302,	-1.79422,	-1.93995,	-1.96223,	-1.95474,	-1.89897,	-1.69258,	-1.52809,	-1.43842,	-1.25991,	-1.15997,	-1.14945,	-0.94304,	-0.77327,	-0.78384,	-0.73412,	-0.71049,	-0.68135,	-0.73038,	-0.74626,	-0.70369,	-0.55668,	-0.44660,	-0.40629,	-0.48482,	-0.69750,	-0.68050,	-0.65166,	-0.66459,	-0.70446,	-0.67311,	-0.58137,	-0.62521,	-0.65689,	-0.71870,	-0.78641,	-0.80981,	-0.82687,	-0.75335,	-0.69441,	-0.73264,	-0.76743,	-0.82476,	-0.95258
-0.90934,	-0.89422,	-0.94432,	-1.00817,	-0.91927,	-0.89246,	-0.93111,	-0.87592,	-0.86326,	-0.70749,	-0.64375,	-0.74336,	-0.91867,	-1.07277,	-1.26264,	-1.41228,	-1.49347,	0.00000,	0.00000,	0.00000,	0.00000,	0.00000,	0.00000,	0.00000,	0.00000,	0.00000,	-0.62199,	-0.33829,	-0.12038,	0.03485,	0.18484,	0.33527,	0.61073,	0.87277,	1.03248,	1.09428,	1.19957,	1.21125,	1.18931,	1.41950,	1.68901,	1.90446,	1.97613,	1.97076,	2.01611,	2.04049,	1.89740,	1.69418,	1.54671,	1.51007,	1.51366,	1.45810,	1.40290,	1.30461,	1.12731,	1.11893,	1.15033,	1.07418,	0.95409,	0.87447,	0.76485,	0.50964,	0.21961,	0.01006,	-0.11386,	-0.24628,	-0.41279,	-0.57735,	-0.54554,	-0.36804,	-0.23476,	-0.11123,	-0.11764,	-0.19614,	-0.29356,	-0.39300,	-0.44827,	-0.42662,	-0.39649,	-0.33688,	-0.20946,	-0.03574,	0.15214,	0.20879,	0.18230,	0.12837,	0.02597,	0.11692,	0.26818,	0.21828,	0.09479,	-0.03715,	-0.08058,	-0.23820,	-0.34541,	-0.42322,	-0.47472,	-0.59514,	-0.72467,	-0.83837,	-0.93619,	-0.99769,	-1.10431,	-1.04970,	-0.96511,	-0.92257,	-0.99164,	-1.18995,	-1.35635,	-1.30509,	-1.14570,	-0.96943,	-0.78305,	-0.62195,	-0.42671,	-0.21095,	0.02940,	0.21125,	0.26519,	0.41186,	0.69679,	0.78689,	0.88144,	1.01443,	1.16181,	1.10931,	1.07843,	1.06071,	1.14568,	1.32257,	1.54793,	1.65338,	1.67591,	1.80073,	1.85139,	1.89907,	1.90817,	1.78040,	1.62488,	1.35502,	1.08114,	0.90644,	0.80917,	0.65415,	0.48540,	0.33968,	0.29618,	0.35051,	0.41489,	0.41069,	0.24369,	0.05657,	-0.00304,	-0.34435,	-0.68361,	-0.98246,	-1.19301,	-1.55336,	-1.77904,	-1.84900,	-1.95438,	-2.11311,	-2.28880,	-2.43982,	-2.57373,	-2.57219,	-2.62273,	-2.61839,	-2.58888,	-2.57132,	-2.52018,	-2.59999,	-2.79186,	-2.99739,	-3.13454,	-3.22370,	-3.29938,	-3.44854,	-3.58922,	-3.62399,	-3.55366,	-3.49845,	-3.48051,	-3.39017,	-3.11759,	-3.06466,	-3.00804,	-2.96115,	-2.74805,	-2.60200,	-2.38906,	-2.23895,	-2.19279,	-2.03914,	-1.83538,	-1.63516,	-1.53030,	-1.40365,	-1.32002,	-1.25990,	-1.18878,	-1.23259,	-1.20371,	-1.27499,	-1.36693,	-1.36478,	-1.20190,	-0.93477,	-0.66497,	-0.49215,	-0.39343,	-0.26158,	-0.04504,	0.16469,	0.37782,	0.55976,	0.83059,	0.85820,	0.95427,	1.14745,	1.39335,	1.44715,	1.47206,	1.55339,	1.56432,	1.51242,	1.37655,	1.20955,	1.00260,	1.03714,	1.09385,	1.15885,	1.22415,	1.13663,	1.14461,	1.21332,	1.27733,	1.32154,	1.35464,	1.41005,	1.45598,	1.37077,	1.21925,	1.09925,	0.93807,	0.69650,	0.40538,	0.06004,	-0.04078,	-0.21690,	-0.40163,	-0.66396,	-0.86753,	-1.06503,	-1.21235,	-1.27347,	-1.43199,	-1.47232,	-1.41916,	-1.34918,	-1.38053,	-1.37049,	-1.35741,	-1.48025,	-1.60376,	-1.83798,	-1.94959,	-1.94333,	-1.93486,	-1.89443,	-1.83207,	-1.71129,	-1.54677,	-1.43615,	-1.31540,	-1.11388,	-0.94955,	-0.85037,	-0.73854,	-0.70345,	-0.63564,	-0.69346,	-0.77762,	-0.74431,	-0.59913,	-0.52430,	-0.56822,	-0.62654,	-0.77364,	-0.81641,	-0.77171,	-0.68116,	-0.69571,	-0.69433,	-0.61445,	-0.54242,	-0.46423,	-0.56086,	-0.67632,	-0.67832,	-0.68901,	-0.72326,	-0.72321,	-0.69033,	-0.71815,	-0.79568,	-0.84563
-0.99782,	-1.05569,	-1.06410,	-1.10675,	-1.11027,	-1.14657,	-1.09467,	-1.04754,	-1.08908,	-0.93546,	-0.79962,	-0.77234,	-0.98096,	-1.15972,	-1.30875,	-1.45318,	-1.57724,	0.00000,	0.00000,	0.00000,	0.00000,	0.00000,	0.00000,	0.00000,	0.00000,	0.00000,	-0.73920,	-0.51025,	-0.33851,	-0.21716,	-0.00621,	0.25658,	0.47037,	0.63648,	0.81249,	0.91794,	0.99904,	1.02735,	1.17654,	1.44916,	1.64415,	1.83783,	1.97797,	2.11875,	2.16503,	2.16322,	2.08025,	1.90958,	1.76602,	1.75436,	1.69481,	1.56171,	1.58072,	1.55271,	1.39057,	1.36401,	1.33199,	1.20368,	1.10512,	1.05131,	0.93078,	0.66037,	0.42453,	0.28932,	0.06215,	-0.19226,	-0.32437,	-0.40052,	-0.35541,	-0.21400,	-0.01864,	0.11201,	-0.01032,	-0.15286,	-0.22975,	-0.24169,	-0.33427,	-0.39473,	-0.33472,	-0.26226,	-0.14993,	0.03131,	0.20403,	0.26035,	0.29850,	0.27938,	0.12033,	0.15540,	0.29319,	0.25023,	0.16130,	0.05778,	-0.03510,	-0.24620,	-0.33990,	-0.31909,	-0.37788,	-0.51474,	-0.53388,	-0.54375,	-0.63909,	-0.76791,	-0.85008,	-0.77520,	-0.80837,	-0.84296,	-0.89786,	-0.99901,	-1.12173,	-1.09083,	-0.85170,	-0.62099,	-0.40147,	-0.19647,	-0.04593,	0.07175,	0.28250,	0.48113,	0.53892,	0.70199,	0.98527,	1.06864,	1.14166,	1.21797,	1.22795,	1.07840,	1.03557,	1.09923,	1.17738,	1.24416,	1.44739,	1.61301,	1.65789,	1.74975,	1.86409,	2.00850,	1.94820,	1.79759,	1.67881,	1.48903,	1.23218,	0.96214,	0.93717,	0.86962,	0.69398,	0.50442,	0.32408,	0.22159,	0.27634,	0.33248,	0.18814,	0.02214,	-0.04845,	-0.38943,	-0.74200,	-1.02540,	-1.25464,	-1.56487,	-1.68891,	-1.63632,	-1.70121,	-1.95617,	-2.16900,	-2.26345,	-2.38029,	-2.44461,	-2.49760,	-2.42167,	-2.44708,	-2.44246,	-2.36064,	-2.36500,	-2.49393,	-2.78979,	-2.94598,	-3.06369,	-3.22131,	-3.41425,	-3.57688,	-3.66333,	-3.58423,	-3.46604,	-3.46476,	-3.44021,	-3.26647,	-3.25410,	-3.22637,	-3.15951,	-2.96705,	-2.84227,	-2.62665,	-2.38323,	-2.25134,	-2.14806,	-1.94683,	-1.65234,	-1.49742,	-1.42799,	-1.38685,	-1.27463,	-1.28408,	-1.38286,	-1.28381,	-1.21320,	-1.19673,	-1.27619,	-1.17569,	-0.92445,	-0.66180,	-0.49544,	-0.38490,	-0.29459,	-0.09320,	0.18270,	0.39457,	0.55448,	0.78956,	0.83909,	0.92456,	1.08880,	1.26987,	1.27023,	1.27585,	1.44192,	1.54906,	1.42557,	1.22506,	1.10963,	0.96597,	0.96782,	0.98703,	1.12314,	1.16900,	1.04021,	1.05426,	1.17102,	1.30468,	1.28806,	1.32703,	1.45774,	1.54806,	1.47804,	1.33887,	1.12516,	0.87964,	0.70008,	0.43883,	0.09365,	-0.03701,	-0.25052,	-0.49597,	-0.77230,	-1.00093,	-1.22426,	-1.36999,	-1.34708,	-1.40445,	-1.51772,	-1.56132,	-1.45535,	-1.42026,	-1.40933,	-1.35330,	-1.31234,	-1.41595,	-1.74959,	-1.97921,	-2.02054,	-1.96958,	-2.01644,	-2.00929,	-1.86049,	-1.69515,	-1.60422,	-1.47634,	-1.32536,	-1.19041,	-0.95500,	-0.75273,	-0.72625,	-0.69062,	-0.79009,	-0.91995,	-0.88545,	-0.74819,	-0.70773,	-0.76696,	-0.74393,	-0.73930,	-0.79623,	-0.82850,	-0.68538,	-0.59456,	-0.57821,	-0.52847,	-0.38652,	-0.30254,	-0.46580,	-0.58970,	-0.54148,	-0.45679,	-0.53397,	-0.61632,	-0.59153,	-0.62927,	-0.69603,	-0.70070
-1.14902,	-1.21777,	-1.26485,	-1.24710,	-1.25839,	-1.41463,	-1.43726,	-1.32609,	-1.31697,	-1.15194,	-1.03215,	-0.96213,	-1.07795,	-1.21614,	-1.37599,	-1.49004,	-1.66616,	-1.80986,	0.00000,	0.00000,	0.00000,	0.00000,	0.00000,	0.00000,	0.00000,	0.00000,	-0.87451,	-0.69070,	-0.51267,	-0.38174,	-0.23743,	0.03833,	0.32002,	0.48403,	0.56727,	0.67716,	0.81393,	0.82701,	0.99006,	1.35816,	1.60738,	1.79145,	1.89993,	2.07393,	2.24305,	2.35440,	2.27595,	2.09549,	1.91513,	1.84768,	1.75020,	1.61320,	1.67812,	1.74644,	1.64631,	1.56245,	1.48215,	1.30596,	1.17101,	1.16035,	1.16018,	1.00855,	0.72890,	0.51132,	0.26140,	-0.03079,	-0.22683,	-0.24275,	-0.06119,	0.07246,	0.16944,	0.30719,	0.22401,	0.05906,	-0.04049,	-0.03824,	-0.09414,	-0.17538,	-0.22493,	-0.21879,	-0.14373,	0.00119,	0.20211,	0.32492,	0.40330,	0.43399,	0.35902,	0.33543,	0.43898,	0.36413,	0.23912,	0.18654,	0.15096,	0.00973,	-0.20244,	-0.32321,	-0.37879,	-0.46578,	-0.45594,	-0.39063,	-0.34643,	-0.49305,	-0.70512,	-0.64209,	-0.58867,	-0.58495,	-0.65413,	-0.77988,	-0.84280,	-0.78971,	-0.61026,	-0.40746,	-0.13091,	0.11532,	0.27064,	0.33060,	0.46100,	0.63717,	0.78755,	0.98183,	1.30511,	1.41491,	1.38847,	1.37782,	1.31564,	1.16999,	1.03870,	0.99955,	1.10337,	1.17913,	1.28653,	1.43312,	1.60773,	1.73052,	1.81031,	2.02421,	2.06473,	1.92140,	1.76433,	1.54243,	1.34032,	1.10229,	1.05430,	0.98502,	0.80632,	0.58496,	0.39102,	0.20532,	0.19798,	0.21606,	0.19376,	0.09827,	0.04645,	-0.25724,	-0.74978,	-1.12342,	-1.36390,	-1.56154,	-1.62698,	-1.63392,	-1.67875,	-1.91452,	-2.20499,	-2.31347,	-2.26231,	-2.23438,	-2.36268,	-2.31820,	-2.27114,	-2.27900,	-2.24482,	-2.28963,	-2.32155,	-2.53930,	-2.76551,	-3.02731,	-3.30001,	-3.55280,	-3.67786,	-3.72120,	-3.59056,	-3.46533,	-3.40360,	-3.42548,	-3.35125,	-3.34389,	-3.41895,	-3.37739,	-3.15084,	-2.93998,	-2.72597,	-2.57513,	-2.42704,	-2.24821,	-2.02058,	-1.69532,	-1.42501,	-1.34424,	-1.45033,	-1.41840,	-1.36733,	-1.45229,	-1.33732,	-1.24262,	-1.14834,	-1.12354,	-1.02498,	-0.89688,	-0.72015,	-0.61424,	-0.42768,	-0.25946,	-0.00855,	0.26282,	0.47365,	0.58414,	0.74201,	0.82589,	0.84876,	0.93286,	1.07544,	1.11129,	1.12483,	1.20710,	1.35168,	1.35715,	1.15869,	1.00003,	0.94130,	0.96751,	0.87720,	0.94543,	1.12877,	1.08872,	1.08692,	1.11319,	1.22251,	1.28850,	1.38880,	1.51206,	1.62084,	1.55014,	1.43403,	1.19137,	0.90739,	0.70181,	0.48133,	0.17545,	0.01970,	-0.18819,	-0.54131,	-0.90771,	-1.15336,	-1.29147,	-1.31969,	-1.34281,	-1.46411,	-1.57635,	-1.70241,	-1.68473,	-1.56817,	-1.44823,	-1.38749,	-1.33775,	-1.31992,	-1.54462,	-1.79331,	-1.97789,	-2.03019,	-2.06990,	-2.01088,	-1.90905,	-1.78886,	-1.74700,	-1.68076,	-1.57062,	-1.43780,	-1.16636,	-0.87211,	-0.79550,	-0.79703,	-0.91132,	-1.12060,	-1.16585,	-0.99694,	-0.82773,	-0.79229,	-0.84005,	-0.88767,	-0.90678,	-0.95584,	-0.84694,	-0.59995,	-0.40739,	-0.38388,	-0.36266,	-0.25208,	-0.30530,	-0.37494,	-0.33713,	-0.25367,	-0.26121,	-0.31983,	-0.41523,	-0.54860,	-0.64053,	-0.64177
-1.29311,	-1.31007,	-1.36706,	-1.46349,	-1.47669,	-1.55689,	-1.61377,	-1.56780,	-1.55812,	-1.33330,	-1.21536,	-1.15988,	-1.20160,	-1.28811,	-1.46453,	-1.53437,	-1.76482,	-1.97347,	0.00000,	0.00000,	0.00000,	0.00000,	0.00000,	0.00000,	0.00000,	0.00000,	-0.91781,	-0.79226,	-0.64967,	-0.51752,	-0.45945,	-0.18248,	0.17105,	0.46592,	0.58083,	0.53740,	0.60634,	0.67670,	0.84719,	1.18102,	1.43074,	1.67814,	1.80521,	1.96268,	2.20646,	2.40066,	2.31362,	2.18020,	2.02177,	1.93764,	1.82178,	1.67694,	1.73782,	1.79615,	1.69118,	1.56834,	1.52632,	1.49918,	1.46094,	1.39560,	1.38486,	1.32479,	1.01876,	0.79221,	0.61698,	0.39959,	0.20632,	0.07646,	0.21824,	0.44315,	0.54946,	0.61546,	0.49785,	0.35415,	0.24739,	0.17322,	0.08787,	-0.00706,	-0.11702,	-0.07625,	0.02167,	0.11773,	0.24656,	0.30964,	0.38430,	0.44679,	0.48346,	0.46828,	0.53631,	0.49628,	0.45173,	0.38709,	0.33367,	0.32093,	0.06928,	-0.16203,	-0.23065,	-0.29426,	-0.25338,	-0.25567,	-0.25469,	-0.29950,	-0.46656,	-0.46351,	-0.43028,	-0.38398,	-0.43690,	-0.62018,	-0.66170,	-0.57063,	-0.44799,	-0.25923,	0.06710,	0.29668,	0.43596,	0.46142,	0.59519,	0.78627,	0.96697,	1.14794,	1.44094,	1.60715,	1.66757,	1.62541,	1.49415,	1.39851,	1.19614,	1.06293,	1.19454,	1.31598,	1.42735,	1.46073,	1.52439,	1.71323,	1.87636,	2.05533,	2.04977,	1.93268,	1.84215,	1.63676,	1.46436,	1.25484,	1.09440,	0.93923,	0.79761,	0.59017,	0.48318,	0.28787,	0.21955,	0.15960,	0.15708,	0.10614,	0.07241,	-0.11331,	-0.50502,	-0.96109,	-1.35327,	-1.53470,	-1.62317,	-1.70467,	-1.71824,	-1.88063,	-2.10894,	-2.27239,	-2.31093,	-2.20168,	-2.23965,	-2.23741,	-2.22263,	-2.22080,	-2.17626,	-2.28840,	-2.33750,	-2.52523,	-2.81681,	-3.15692,	-3.37777,	-3.61675,	-3.70387,	-3.74956,	-3.63655,	-3.54159,	-3.46995,	-3.46718,	-3.40103,	-3.34877,	-3.33299,	-3.29354,	-3.14993,	-2.87240,	-2.65972,	-2.60261,	-2.44889,	-2.20668,	-1.89960,	-1.63376,	-1.52843,	-1.44655,	-1.45604,	-1.42583,	-1.41725,	-1.51713,	-1.43337,	-1.41381,	-1.31800,	-1.15766,	-0.96024,	-0.88220,	-0.72701,	-0.69266,	-0.46795,	-0.24528,	0.05163,	0.35663,	0.55435,	0.60851,	0.66852,	0.72172,	0.80859,	0.87204,	0.89368,	0.97047,	1.01329,	1.01367,	1.17519,	1.28201,	1.18704,	1.01288,	0.83594,	0.86136,	0.84656,	0.87585,	1.01848,	0.98470,	1.00794,	0.99422,	1.10851,	1.28823,	1.44825,	1.52148,	1.64306,	1.56275,	1.47946,	1.28171,	1.03032,	0.80556,	0.56316,	0.26696,	0.09200,	-0.09388,	-0.37680,	-0.74121,	-1.09529,	-1.20142,	-1.16006,	-1.28688,	-1.49598,	-1.60577,	-1.67117,	-1.66005,	-1.67353,	-1.58317,	-1.48566,	-1.45670,	-1.43484,	-1.54461,	-1.64966,	-1.88158,	-2.07451,	-2.14444,	-2.05329,	-1.99754,	-1.85319,	-1.78018,	-1.72905,	-1.66215,	-1.57590,	-1.36713,	-1.09860,	-1.01477,	-1.03385,	-1.12702,	-1.26105,	-1.28005,	-1.18499,	-0.98385,	-0.86397,	-0.97301,	-1.04378,	-1.00223,	-0.98063,	-0.86459,	-0.69675,	-0.50513,	-0.37965,	-0.32452,	-0.18636,	-0.15916,	-0.13801,	-0.12182,	-0.13175,	-0.11000,	-0.10859,	-0.22642,	-0.33768,	-0.41565,	-0.42318
-1.31858,	-1.44845,	-1.54476,	-1.60833,	-1.57353,	-1.61874,	-1.65834,	-1.73847,	-1.78442,	-1.52596,	-1.38436,	-1.28664,	-1.33242,	-1.41598,	-1.55713,	-1.62483,	-1.86593,	-2.15726,	-2.35269,	0.00000,	0.00000,	0.00000,	0.00000,	0.00000,	0.00000,	0.00000,	-1.10422,	-0.93256,	-0.87262,	-0.78225,	-0.68194,	-0.35550,	0.05708,	0.36999,	0.52882,	0.52944,	0.59663,	0.66244,	0.85625,	1.10621,	1.30032,	1.61648,	1.80602,	2.01127,	2.22553,	2.34428,	2.27231,	2.21053,	2.15479,	2.08807,	2.01232,	1.91574,	1.90850,	1.81473,	1.68116,	1.59914,	1.57915,	1.67249,	1.70471,	1.63117,	1.49068,	1.37136,	1.17008,	1.06897,	1.03205,	0.82197,	0.56172,	0.41545,	0.53532,	0.75495,	0.89967,	0.89631,	0.67635,	0.54490,	0.41913,	0.29195,	0.14268,	0.00357,	-0.02022,	0.14643,	0.32057,	0.35328,	0.38824,	0.39760,	0.41399,	0.41041,	0.45836,	0.51773,	0.51313,	0.48270,	0.46676,	0.41258,	0.30802,	0.30748,	0.21517,	0.06186,	0.03606,	-0.07383,	-0.13330,	-0.13079,	-0.10646,	-0.09564,	-0.17150,	-0.19523,	-0.30405,	-0.30700,	-0.37730,	-0.54894,	-0.56078,	-0.45498,	-0.28236,	-0.05482,	0.27867,	0.42326,	0.51015,	0.59869,	0.77777,	0.96164,	1.07150,	1.25794,	1.40181,	1.54806,	1.68028,	1.71649,	1.60394,	1.46336,	1.32530,	1.23642,	1.42330,	1.53677,	1.54104,	1.53532,	1.56664,	1.73872,	1.91237,	2.01968,	1.85868,	1.77327,	1.80019,	1.71479,	1.58617,	1.32929,	1.10905,	0.91235,	0.81296,	0.61884,	0.52184,	0.41628,	0.33170,	0.20292,	0.07452,	0.07142,	-0.01520,	-0.13322,	-0.39235,	-0.82798,	-1.29742,	-1.61127,	-1.68546,	-1.72038,	-1.65297,	-1.75256,	-2.02694,	-2.19155,	-2.25850,	-2.20437,	-2.21828,	-2.19543,	-2.26001,	-2.19833,	-2.10599,	-2.22639,	-2.33511,	-2.63110,	-2.93845,	-3.21437,	-3.29676,	-3.47106,	-3.61435,	-3.64926,	-3.60567,	-3.57172,	-3.60151,	-3.48054,	-3.39381,	-3.32811,	-3.23908,	-3.17244,	-3.05400,	-2.85741,	-2.61384,	-2.50613,	-2.29720,	-2.04476,	-1.88107,	-1.72837,	-1.67498,	-1.59718,	-1.50081,	-1.37089,	-1.47486,	-1.61074,	-1.57473,	-1.61164,	-1.50047,	-1.33934,	-1.08112,	-0.93288,	-0.73187,	-0.71208,	-0.59366,	-0.33424,	-0.00431,	0.34632,	0.49138,	0.59785,	0.60670,	0.59361,	0.71508,	0.79952,	0.81838,	0.84608,	0.92408,	0.99134,	1.18806,	1.28987,	1.12244,	0.94195,	0.83072,	0.91556,	0.95147,	0.99930,	0.95629,	0.82380,	0.85966,	0.88852,	1.10712,	1.31221,	1.46694,	1.53638,	1.64706,	1.57832,	1.44329,	1.35421,	1.20898,	0.98417,	0.63396,	0.37417,	0.20403,	-0.00246,	-0.21548,	-0.54089,	-0.89677,	-1.08975,	-1.10924,	-1.24164,	-1.43725,	-1.51929,	-1.59872,	-1.59124,	-1.60725,	-1.54710,	-1.50809,	-1.48440,	-1.53731,	-1.64232,	-1.63839,	-1.82810,	-2.02037,	-2.16496,	-2.14635,	-2.07209,	-1.86712,	-1.68735,	-1.64158,	-1.55603,	-1.44981,	-1.31562,	-1.18390,	-1.10475,	-1.09596,	-1.20872,	-1.28368,	-1.27738,	-1.22948,	-1.16459,	-1.08693,	-1.09297,	-1.02798,	-0.86393,	-0.85105,	-0.80164,	-0.68297,	-0.52110,	-0.36280,	-0.18629,	-0.01086,	-0.00268,	0.05119,	0.02916,	-0.03160,	-0.04842,	-0.05798,	-0.06032,	-0.05383,	-0.06624,	-0.11644
-1.48452,	-1.62222,	-1.72637,	-1.76721,	-1.68910,	-1.80777,	-1.86574,	-1.84170,	-1.85346,	-1.61754,	-1.47914,	-1.35665,	-1.43329,	-1.53341,	-1.65494,	-1.86397,	-2.13055,	-2.41718,	-2.52477,	0.00000,	0.00000,	0.00000,	0.00000,	0.00000,	0.00000,	-1.67423,	-1.31298,	-1.00442,	-0.95486,	-0.93094,	-0.81372,	-0.61109,	-0.25462,	0.15147,	0.42325,	0.49022,	0.56785,	0.56984,	0.74270,	1.07686,	1.30796,	1.64536,	1.87656,	2.11585,	2.27982,	2.32803,	2.30718,	2.21016,	2.19316,	2.19167,	2.18810,	2.10971,	1.97488,	1.83478,	1.80783,	1.83934,	1.89137,	1.99461,	1.99334,	1.96210,	1.74949,	1.52450,	1.37909,	1.27939,	1.26761,	1.14475,	0.89148,	0.72912,	0.82752,	0.95978,	1.06299,	1.13964,	0.95850,	0.79098,	0.60835,	0.46053,	0.29304,	0.13841,	0.19682,	0.34896,	0.48003,	0.49611,	0.47761,	0.38332,	0.27092,	0.26301,	0.43077,	0.58446,	0.56257,	0.49798,	0.41732,	0.40985,	0.33617,	0.31850,	0.36606,	0.23391,	0.13163,	0.07388,	0.01671,	-0.00804,	0.01017,	0.02104,	-0.04610,	0.01434,	-0.06006,	-0.13072,	-0.23320,	-0.36889,	-0.34679,	-0.24394,	-0.03088,	0.14212,	0.30813,	0.38836,	0.49974,	0.66731,	0.84364,	1.04612,	1.22066,	1.40901,	1.44257,	1.52303,	1.61773,	1.77888,	1.81326,	1.62941,	1.51193,	1.41874,	1.50813,	1.65269,	1.66241,	1.60938,	1.58476,	1.68086,	1.74547,	1.88030,	1.81406,	1.75335,	1.82011,	1.82357,	1.73974,	1.45320,	1.18849,	0.88580,	0.66106,	0.49441,	0.45805,	0.44103,	0.29917,	0.15383,	0.06885,	0.10391,	-0.00242,	-0.08857,	-0.30807,	-0.67300,	-1.06799,	-1.46646,	-1.57352,	-1.62755,	-1.67440,	-1.69251,	-1.88524,	-2.05866,	-2.17792,	-2.19634,	-2.27252,	-2.16294,	-2.06481,	-1.96097,	-1.89272,	-2.03735,	-2.23583,	-2.63710,	-2.92062,	-3.12764,	-3.24335,	-3.38027,	-3.53724,	-3.58574,	-3.68505,	-3.70769,	-3.66531,	-3.39835,	-3.22853,	-3.15659,	-3.11553,	-3.01664,	-2.79629,	-2.66849,	-2.45671,	-2.34350,	-2.28682,	-2.06427,	-1.93553,	-1.85886,	-1.83383,	-1.75754,	-1.68223,	-1.45454,	-1.40815,	-1.51962,	-1.57308,	-1.67533,	-1.55003,	-1.39796,	-1.09018,	-0.88585,	-0.80824,	-0.81301,	-0.76215,	-0.50942,	-0.24841,	0.11459,	0.39296,	0.61376,	0.65378,	0.62758,	0.67859,	0.74372,	0.86683,	0.88733,	0.94752,	1.03704,	1.07053,	1.12934,	1.03193,	0.89741,	0.85025,	0.97629,	0.95092,	0.99095,	0.97035,	0.80319,	0.82180,	0.90577,	1.21684,	1.41123,	1.53969,	1.57532,	1.49114,	1.38308,	1.24785,	1.27685,	1.18505,	0.93601,	0.63644,	0.49875,	0.40251,	0.21340,	-0.01645,	-0.34402,	-0.60495,	-0.84466,	-0.97358,	-1.10688,	-1.41437,	-1.52835,	-1.53346,	-1.50034,	-1.52085,	-1.48412,	-1.60957,	-1.65991,	-1.59919,	-1.62857,	-1.58490,	-1.74493,	-1.91192,	-2.10404,	-2.16082,	-2.09148,	-1.99780,	-1.78564,	-1.66432,	-1.51766,	-1.40925,	-1.34883,	-1.22965,	-1.08520,	-1.01725,	-1.10175,	-1.19666,	-1.24256,	-1.16812,	-1.15347,	-1.12934,	-1.04912,	-0.98763,	-0.82468,	-0.73626,	-0.70176,	-0.66290,	-0.52388,	-0.38372,	-0.12449,	0.24605,	0.33481,	0.35694,	0.24834,	0.13541,	0.08317,	0.06626,	0.18532,	0.18779,	0.14091,	0.09700
-1.61679,	-1.71080,	-1.79501,	-1.92240,	-1.96762,	-2.06864,	-2.11345,	-2.04230,	-2.02708,	-1.87949,	-1.69235,	-1.60657,	-1.71132,	-1.80616,	-1.91629,	-2.19002,	-2.38829,	-2.55852,	-2.72657,	0.00000,	0.00000,	0.00000,	0.00000,	0.00000,	0.00000,	-1.92188,	-1.50153,	-1.20219,	-1.14006,	-1.02081,	-0.89312,	-0.73919,	-0.47880,	-0.07658,	0.28471,	0.35292,	0.33806,	0.43080,	0.69079,	1.02048,	1.22887,	1.50176,	1.81093,	2.02258,	2.13089,	2.23896,	2.36597,	2.29513,	2.31046,	2.36765,	2.29973,	2.17321,	2.01636,	1.91598,	1.95787,	2.07481,	2.20244,	2.25285,	2.25101,	2.17262,	1.94113,	1.80263,	1.65926,	1.56141,	1.54848,	1.44927,	1.24639,	1.04394,	1.01941,	1.12990,	1.29868,	1.40457,	1.22519,	0.93735,	0.72902,	0.62179,	0.49030,	0.41315,	0.48971,	0.53463,	0.60480,	0.70362,	0.60732,	0.36802,	0.21745,	0.21567,	0.38628,	0.52524,	0.53801,	0.50155,	0.49572,	0.46464,	0.31979,	0.35932,	0.46839,	0.36629,	0.26909,	0.27664,	0.29451,	0.18482,	0.03666,	0.05423,	0.12064,	0.19104,	0.11722,	-0.00035,	-0.04250,	-0.09242,	-0.11468,	-0.04464,	0.15456,	0.26595,	0.28449,	0.43069,	0.58160,	0.75901,	0.96450,	1.12689,	1.27347,	1.38895,	1.43995,	1.51862,	1.65179,	1.84478,	1.86377,	1.74866,	1.64273,	1.53474,	1.62343,	1.74358,	1.80705,	1.70313,	1.49171,	1.47590,	1.59892,	1.80148,	1.85838,	1.78923,	1.79171,	1.81138,	1.69460,	1.48062,	1.24593,	0.88379,	0.54898,	0.46056,	0.44895,	0.37848,	0.23909,	0.14387,	0.10556,	0.05833,	-0.07163,	-0.16664,	-0.28815,	-0.57641,	-0.98609,	-1.27242,	-1.36151,	-1.51749,	-1.61873,	-1.63023,	-1.71936,	-1.92533,	-2.20164,	-2.25953,	-2.15310,	-1.94837,	-1.77989,	-1.76877,	-1.81225,	-1.94349,	-2.27922,	-2.64710,	-2.82300,	-2.94083,	-3.15148,	-3.29415,	-3.46171,	-3.61854,	-3.74760,	-3.75686,	-3.68205,	-3.44501,	-3.23275,	-3.14979,	-3.07843,	-2.91850,	-2.72833,	-2.56685,	-2.31985,	-2.25988,	-2.26406,	-2.13411,	-1.98850,	-1.88241,	-1.91611,	-1.90622,	-1.77542,	-1.53517,	-1.38881,	-1.45384,	-1.58727,	-1.65895,	-1.58424,	-1.39057,	-1.02081,	-0.78260,	-0.82265,	-0.77804,	-0.69646,	-0.59781,	-0.45917,	-0.11413,	0.24917,	0.45838,	0.55232,	0.60791,	0.66920,	0.71399,	0.75540,	0.82480,	0.94603,	0.95809,	0.93550,	1.00613,	1.06377,	1.03389,	0.92227,	0.90066,	0.92303,	0.97729,	0.95705,	0.81085,	0.79617,	0.99145,	1.23923,	1.37157,	1.49848,	1.52730,	1.32632,	1.22902,	1.16450,	1.14952,	1.03486,	0.81270,	0.57275,	0.44962,	0.40716,	0.27722,	0.09794,	-0.16809,	-0.48494,	-0.74950,	-0.83186,	-0.94570,	-1.22630,	-1.37831,	-1.40967,	-1.39351,	-1.47528,	-1.52763,	-1.64941,	-1.69816,	-1.59301,	-1.58669,	-1.61121,	-1.71854,	-1.90505,	-2.06703,	-2.08680,	-2.04667,	-2.11441,	-1.93043,	-1.68054,	-1.57436,	-1.49590,	-1.37566,	-1.24781,	-1.18428,	-1.13300,	-1.13511,	-1.20426,	-1.24748,	-1.24055,	-1.19079,	-1.01871,	-0.89648,	-0.85237,	-0.76573,	-0.65534,	-0.59409,	-0.63356,	-0.55694,	-0.30500,	0.12056,	0.54066,	0.61916,	0.53266,	0.41461,	0.29644,	0.22907,	0.26461,	0.44667,	0.40127,	0.31923,	0.36671
-1.72278,	-1.79811,	-1.88312,	-1.91431,	-2.07910,	-2.30915,	-2.38721,	-2.40858,	-2.43948,	-2.28098,	-2.00499,	-1.88775,	-1.99505,	-2.20542,	-2.34141,	-2.50850,	-2.57882,	-2.68545,	-2.94184,	0.00000,	0.00000,	0.00000,	0.00000,	0.00000,	0.00000,	-2.12947,	-1.73061,	-1.43600,	-1.32907,	-1.13639,	-0.96887,	-0.76461,	-0.55896,	-0.29851,	-0.00650,	0.18971,	0.19146,	0.28214,	0.59361,	0.85276,	0.99518,	1.27668,	1.68673,	1.91409,	2.00652,	2.08557,	2.28685,	2.36392,	2.46060,	2.49378,	2.33309,	2.22574,	2.17438,	2.15562,	2.22854,	2.33871,	2.40687,	2.30243,	2.25332,	2.22390,	2.13255,	2.11433,	1.94393,	1.83799,	1.78271,	1.60473,	1.38523,	1.28720,	1.28187,	1.30164,	1.47431,	1.56416,	1.33899,	1.01825,	0.86980,	0.84343,	0.77676,	0.68786,	0.67726,	0.69494,	0.79874,	0.94364,	0.82465,	0.60051,	0.50464,	0.46619,	0.53283,	0.56897,	0.55045,	0.51858,	0.58185,	0.59936,	0.44469,	0.46391,	0.48938,	0.39383,	0.34078,	0.35684,	0.37506,	0.32249,	0.21158,	0.15685,	0.23625,	0.26397,	0.11720,	0.02463,	0.12669,	0.17108,	0.11001,	0.04544,	0.11261,	0.25248,	0.33802,	0.58216,	0.72714,	0.90493,	1.13642,	1.22275,	1.31249,	1.41346,	1.54577,	1.65299,	1.75227,	1.92070,	1.89010,	1.79188,	1.63477,	1.50129,	1.61664,	1.67730,	1.70667,	1.67334,	1.53269,	1.38630,	1.47038,	1.70072,	1.75997,	1.69539,	1.69046,	1.68918,	1.56105,	1.38293,	1.17062,	0.93559,	0.70023,	0.66550,	0.57116,	0.41182,	0.31891,	0.27007,	0.25971,	0.15176,	-0.04981,	-0.21452,	-0.37542,	-0.59891,	-0.95015,	-1.12412,	-1.23889,	-1.47647,	-1.58347,	-1.65010,	-1.78529,	-1.97522,	-2.14508,	-2.23703,	-2.08525,	-1.84481,	-1.76818,	-1.86795,	-1.91409,	-1.98924,	-2.31132,	-2.60095,	-2.79220,	-2.84099,	-3.03648,	-3.20272,	-3.41331,	-3.58340,	-3.56571,	-3.52163,	-3.49607,	-3.38176,	-3.27121,	-3.21709,	-3.18642,	-2.99812,	-2.79552,	-2.59459,	-2.35706,	-2.31403,	-2.28346,	-2.22161,	-2.14625,	-1.98545,	-1.83741,	-1.88532,	-1.86475,	-1.68798,	-1.58602,	-1.60078,	-1.58828,	-1.49732,	-1.38839,	-1.18120,	-0.93219,	-0.69856,	-0.66943,	-0.52180,	-0.40836,	-0.42203,	-0.33764,	-0.06304,	0.23039,	0.37488,	0.45978,	0.58285,	0.61678,	0.64645,	0.66248,	0.75799,	0.85705,	0.78550,	0.78187,	0.88019,	0.96501,	1.00010,	1.01947,	0.88421,	0.82876,	0.88919,	0.84313,	0.74178,	0.78976,	1.05328,	1.19949,	1.23507,	1.24674,	1.32713,	1.29752,	1.30769,	1.26239,	1.14360,	1.01088,	0.83510,	0.59007,	0.41692,	0.34193,	0.23217,	0.05665,	-0.14334,	-0.43830,	-0.68810,	-0.75794,	-0.86890,	-1.07299,	-1.24868,	-1.43752,	-1.51179,	-1.45624,	-1.47272,	-1.58084,	-1.58629,	-1.54607,	-1.60435,	-1.67231,	-1.72307,	-1.87166,	-1.93854,	-1.95371,	-1.93689,	-1.99557,	-1.83259,	-1.60137,	-1.59207,	-1.51034,	-1.29476,	-1.18137,	-1.20562,	-1.20478,	-1.17376,	-1.26242,	-1.31976,	-1.31940,	-1.21085,	-0.96723,	-0.87523,	-0.85596,	-0.83940,	-0.79301,	-0.72570,	-0.57722,	-0.38658,	-0.13670,	0.30719,	0.60245,	0.57499,	0.48746,	0.52674,	0.55713,	0.54174,	0.53013,	0.64555,	0.63336,	0.61732,	0.69212
-1.91799,	-1.85465,	-1.94542,	-1.98132,	-2.17942,	-2.49172,	-2.69005,	-2.78399,	-2.80094,	-2.60195,	-2.32401,	-2.22303,	-2.30603,	-2.47914,	-2.71069,	-2.85667,	-2.90945,	-3.03256,	-3.25660,	0.00000,	0.00000,	0.00000,	0.00000,	0.00000,	0.00000,	-2.22522,	-1.90133,	-1.62704,	-1.43180,	-1.24389,	-1.06517,	-0.84996,	-0.67431,	-0.39235,	-0.16105,	0.01492,	0.05022,	0.13532,	0.37980,	0.61546,	0.82770,	1.17436,	1.60009,	1.80601,	1.91256,	2.04568,	2.19055,	2.31450,	2.45543,	2.45039,	2.31475,	2.29868,	2.31433,	2.31224,	2.39337,	2.47358,	2.51355,	2.38389,	2.27337,	2.26376,	2.33835,	2.36670,	2.15506,	2.02333,	1.91758,	1.79635,	1.61300,	1.50823,	1.52596,	1.52815,	1.61514,	1.67530,	1.52517,	1.25163,	1.09519,	1.01657,	0.96049,	0.95549,	0.89851,	0.89302,	1.01236,	1.08788,	0.99901,	0.87181,	0.79513,	0.68140,	0.67548,	0.63990,	0.61836,	0.62878,	0.69981,	0.72268,	0.63410,	0.61746,	0.51305,	0.38300,	0.30317,	0.37191,	0.43230,	0.37450,	0.31723,	0.26772,	0.26809,	0.23528,	0.13252,	0.07464,	0.19900,	0.23069,	0.16487,	0.13934,	0.14791,	0.23779,	0.38114,	0.58517,	0.71264,	0.92163,	1.17005,	1.21833,	1.32319,	1.47163,	1.71254,	1.89348,	1.94622,	2.02424,	1.98774,	1.87386,	1.60798,	1.42987,	1.48914,	1.57925,	1.67298,	1.64788,	1.56178,	1.39749,	1.36617,	1.49447,	1.59060,	1.56810,	1.56178,	1.50645,	1.36008,	1.26617,	1.14861,	0.98083,	0.86242,	0.79793,	0.64632,	0.46619,	0.38035,	0.28430,	0.27870,	0.17456,	-0.01163,	-0.14227,	-0.31133,	-0.53983,	-0.80974,	-0.93775,	-1.16051,	-1.43779,	-1.60242,	-1.67359,	-1.75491,	-1.96805,	-2.10119,	-2.20723,	-2.14093,	-1.98752,	-1.90053,	-1.97354,	-1.99950,	-2.08892,	-2.38661,	-2.57749,	-2.72393,	-2.83079,	-2.97811,	-3.17667,	-3.39728,	-3.49109,	-3.35448,	-3.33541,	-3.36881,	-3.32302,	-3.26038,	-3.18165,	-3.15149,	-3.02415,	-2.80360,	-2.55956,	-2.40701,	-2.35505,	-2.33139,	-2.25661,	-2.12275,	-2.01045,	-1.83656,	-1.88338,	-1.94741,	-1.87826,	-1.77303,	-1.70509,	-1.54814,	-1.36458,	-1.23207,	-0.97604,	-0.71556,	-0.57098,	-0.47449,	-0.31582,	-0.21031,	-0.21927,	-0.12281,	0.05420,	0.24620,	0.35282,	0.43640,	0.60835,	0.66460,	0.64758,	0.66649,	0.79411,	0.78944,	0.66831,	0.60941,	0.68114,	0.84976,	0.89104,	0.95132,	0.83544,	0.73080,	0.71254,	0.69266,	0.67837,	0.77238,	0.98629,	1.02720,	1.03851,	1.09224,	1.15183,	1.25760,	1.31706,	1.25368,	1.14588,	1.06859,	0.89496,	0.61389,	0.40936,	0.31088,	0.24034,	0.11914,	-0.07538,	-0.33909,	-0.52101,	-0.67092,	-0.84611,	-1.07203,	-1.26326,	-1.40159,	-1.50537,	-1.44425,	-1.41113,	-1.47509,	-1.52545,	-1.54333,	-1.59746,	-1.67360,	-1.74410,	-1.89473,	-1.86761,	-1.73246,	-1.73360,	-1.75427,	-1.62057,	-1.50644,	-1.54785,	-1.45271,	-1.26029,	-1.19632,	-1.21599,	-1.18961,	-1.08292,	-1.10290,	-1.19239,	-1.24057,	-1.12553,	-0.96093,	-0.95640,	-0.97442,	-0.97630,	-0.84598,	-0.72675,	-0.51230,	-0.24470,	-0.00720,	0.31335,	0.50360,	0.51082,	0.49764,	0.63528,	0.74333,	0.79257,	0.87525,	0.94076,	0.94224,	0.97374,	0.96967
-1.95981,	-1.93153,	-2.08982,	-2.17165,	-2.35387,	-2.51694,	-2.73199,	-2.85901,	-2.88036,	-2.79862,	-2.61411,	-2.58130,	-2.64131,	-2.81266,	-3.13821,	-3.31339,	-3.37163,	-3.39108,	-3.48700,	0.00000,	0.00000,	0.00000,	0.00000,	0.00000,	0.00000,	-2.40371,	-2.11947,	-1.89241,	-1.63664,	-1.31896,	-1.06703,	-0.80963,	-0.63755,	-0.42250,	-0.27908,	-0.13541,	-0.06879,	0.16292,	0.41916,	0.63302,	0.90368,	1.17257,	1.54170,	1.75919,	1.92149,	2.04871,	2.03656,	2.10197,	2.24313,	2.35841,	2.36490,	2.41289,	2.42333,	2.39393,	2.46315,	2.43825,	2.41632,	2.31878,	2.18980,	2.17836,	2.33204,	2.45783,	2.29586,	2.18391,	2.11833,	2.02288,	1.83782,	1.73249,	1.73007,	1.80143,	1.87299,	1.86394,	1.79888,	1.51856,	1.29407,	1.15641,	1.09260,	1.12942,	1.03655,	1.00585,	1.07611,	1.12040,	1.06911,	0.98640,	0.90643,	0.78036,	0.78700,	0.66440,	0.58564,	0.61444,	0.65475,	0.62519,	0.53968,	0.57641,	0.51123,	0.40458,	0.36213,	0.42089,	0.41124,	0.31969,	0.25759,	0.25937,	0.32294,	0.27424,	0.26419,	0.17696,	0.17878,	0.17244,	0.12586,	0.19749,	0.16253,	0.18551,	0.29591,	0.43689,	0.59547,	0.78963,	1.02483,	1.12858,	1.35758,	1.55663,	1.80404,	1.99274,	1.96447,	1.92590,	1.86368,	1.82111,	1.63754,	1.46407,	1.49735,	1.54210,	1.54759,	1.48995,	1.43893,	1.35500,	1.39924,	1.42969,	1.55144,	1.53794,	1.47325,	1.39087,	1.19908,	1.12504,	0.97706,	0.83785,	0.80339,	0.78238,	0.72210,	0.52486,	0.38127,	0.22775,	0.25970,	0.13953,	-0.08845,	-0.17219,	-0.31390,	-0.52936,	-0.76100,	-0.81548,	-0.98471,	-1.27758,	-1.46333,	-1.60272,	-1.74255,	-1.94787,	-2.04700,	-2.14589,	-2.04810,	-2.00946,	-1.90214,	-1.89737,	-1.97359,	-2.07494,	-2.38785,	-2.56702,	-2.76602,	-2.96608,	-3.09275,	-3.23029,	-3.29478,	-3.30130,	-3.16601,	-3.23105,	-3.28218,	-3.28632,	-3.27976,	-3.15505,	-3.09928,	-3.02383,	-2.87959,	-2.62391,	-2.42985,	-2.36284,	-2.25973,	-2.14045,	-2.04119,	-1.99778,	-1.86118,	-1.88237,	-1.79854,	-1.79351,	-1.72529,	-1.65725,	-1.56233,	-1.33113,	-1.16135,	-0.83701,	-0.59553,	-0.54073,	-0.43237,	-0.26235,	-0.05214,	-0.03615,	0.02557,	0.11539,	0.29992,	0.40494,	0.43448,	0.61652,	0.66242,	0.58495,	0.51543,	0.62533,	0.70355,	0.63055,	0.61655,	0.64346,	0.71616,	0.69034,	0.75730,	0.73246,	0.79184,	0.74919,	0.71090,	0.71585,	0.71892,	0.84255,	0.82089,	0.86795,	0.93892,	0.95826,	1.07854,	1.12873,	1.15073,	1.11478,	1.10259,	0.94519,	0.71670,	0.51277,	0.28937,	0.17046,	0.02234,	-0.20748,	-0.47739,	-0.59076,	-0.64786,	-0.81613,	-1.00687,	-1.15311,	-1.27181,	-1.42527,	-1.42798,	-1.42578,	-1.35490,	-1.38379,	-1.43914,	-1.45891,	-1.61254,	-1.73597,	-1.88126,	-1.76990,	-1.55124,	-1.58998,	-1.61079,	-1.50280,	-1.36660,	-1.38878,	-1.31659,	-1.19393,	-1.15191,	-1.13341,	-1.15783,	-1.04701,	-0.98481,	-1.06192,	-1.16896,	-1.12466,	-0.97433,	-0.99352,	-0.97219,	-0.87175,	-0.70292,	-0.59433,	-0.41431,	-0.18003,	0.13354,	0.40614,	0.52560,	0.62159,	0.62907,	0.78998,	0.91221,	0.98380,	1.10246,	1.11482,	1.14171,	1.21071,	1.23971
-2.09365,	-2.23791,	-2.45290,	-2.48613,	-2.55549,	-2.63859,	-2.81052,	-2.89698,	-2.94315,	-2.93779,	-2.92622,	-2.88040,	-2.91608,	-3.21519,	-3.46842,	-3.56333,	-3.64457,	-3.57928,	-3.50400,	0.00000,	0.00000,	0.00000,	0.00000,	0.00000,	0.00000,	-2.63872,	-2.32008,	-1.99445,	-1.73121,	-1.37805,	-1.05724,	-0.80786,	-0.71332,	-0.60841,	-0.49112,	-0.25575,	-0.06272,	0.22920,	0.48460,	0.69090,	0.94094,	1.17097,	1.47654,	1.83054,	2.13247,	2.13394,	2.04430,	2.09800,	2.14921,	2.34648,	2.52770,	2.60174,	2.59221,	2.56750,	2.55019,	2.44036,	2.36487,	2.21501,	2.12955,	2.24591,	2.36554,	2.41810,	2.31400,	2.21883,	2.15375,	2.06418,	1.93344,	1.97774,	2.06469,	2.10369,	2.07732,	2.00243,	1.95855,	1.73653,	1.47892,	1.37358,	1.36772,	1.27389,	1.22261,	1.27943,	1.22851,	1.18488,	1.11075,	0.99809,	0.90381,	0.87510,	0.89598,	0.72293,	0.60740,	0.50232,	0.45330,	0.45762,	0.36234,	0.36283,	0.38519,	0.34304,	0.27805,	0.27746,	0.19863,	0.13612,	0.14439,	0.13097,	0.20587,	0.23120,	0.30755,	0.27147,	0.16907,	0.13021,	0.17524,	0.20465,	0.18302,	0.29710,	0.33554,	0.35831,	0.52618,	0.66352,	0.84192,	1.12176,	1.48968,	1.73044,	1.93733,	1.94101,	1.77191,	1.73381,	1.71449,	1.68196,	1.62793,	1.55429,	1.50546,	1.42136,	1.29508,	1.24380,	1.34653,	1.35103,	1.41523,	1.44268,	1.53284,	1.54569,	1.49794,	1.39242,	1.25201,	1.02538,	0.73556,	0.72497,	0.75564,	0.77959,	0.83792,	0.63844,	0.38005,	0.22772,	0.25914,	0.08592,	-0.12865,	-0.26156,	-0.42527,	-0.50674,	-0.62352,	-0.68989,	-0.82106,	-1.09315,	-1.37634,	-1.64460,	-1.82792,	-1.92545,	-1.81417,	-1.85354,	-1.86181,	-1.91746,	-1.88208,	-1.80971,	-1.85102,	-1.97225,	-2.17540,	-2.48889,	-2.84448,	-3.00703,	-3.10336,	-3.15810,	-3.04854,	-2.98158,	-3.01381,	-3.16116,	-3.21907,	-3.28597,	-3.22071,	-3.09760,	-3.06989,	-2.89117,	-2.71828,	-2.56508,	-2.40604,	-2.30896,	-2.16944,	-2.04451,	-1.97375,	-1.92341,	-1.71876,	-1.68185,	-1.56265,	-1.58919,	-1.63216,	-1.66230,	-1.65481,	-1.45917,	-1.11117,	-0.76950,	-0.64281,	-0.52238,	-0.37865,	-0.24249,	0.02313,	0.07540,	0.04048,	0.11096,	0.36321,	0.45191,	0.50728,	0.63418,	0.52883,	0.45281,	0.39628,	0.41551,	0.56251,	0.63000,	0.69777,	0.65571,	0.56508,	0.47067,	0.60476,	0.72542,	0.84352,	0.82082,	0.73988,	0.68325,	0.65891,	0.65522,	0.73564,	0.84249,	0.81093,	0.89018,	0.97414,	0.91641,	0.97585,	1.04035,	1.06833,	0.98554,	0.92247,	0.74096,	0.45577,	0.21186,	-0.15606,	-0.39812,	-0.53132,	-0.60937,	-0.59996,	-0.68794,	-0.85557,	-1.00546,	-1.12753,	-1.30296,	-1.30032,	-1.32449,	-1.30932,	-1.33033,	-1.38640,	-1.39535,	-1.52215,	-1.70834,	-1.74145,	-1.56963,	-1.48231,	-1.46691,	-1.40779,	-1.34603,	-1.17619,	-1.12837,	-1.10860,	-1.04452,	-0.96465,	-0.95836,	-1.01192,	-0.92470,	-0.89776,	-0.89009,	-0.84365,	-0.86900,	-0.83157,	-0.86685,	-0.83432,	-0.68349,	-0.50466,	-0.36720,	-0.16191,	0.06854,	0.33908,	0.51997,	0.62133,	0.77440,	0.87205,	0.99549,	1.10018,	1.18116,	1.14044,	1.18723,	1.37674,	1.45781,	1.54644
-2.36691,	-2.49435,	-2.69350,	-2.84519,	-2.90110,	-2.94385,	-3.08846,	-3.07232,	-3.06404,	-3.02740,	-3.11960,	-3.16722,	-3.21148,	-3.41102,	-3.50808,	-3.56149,	-3.67623,	-3.65035,	-3.50741,	0.00000,	0.00000,	0.00000,	0.00000,	0.00000,	0.00000,	-2.68005,	-2.27601,	-1.97944,	-1.78576,	-1.51237,	-1.19837,	-0.91573,	-0.86111,	-0.71760,	-0.55602,	-0.39229,	-0.17051,	0.17927,	0.44703,	0.70123,	0.97947,	1.28072,	1.58105,	1.89894,	2.22524,	2.32578,	2.34263,	2.36682,	2.27305,	2.34865,	2.55371,	2.69697,	2.76625,	2.73984,	2.60510,	2.43830,	2.31150,	2.18615,	2.22026,	2.34154,	2.33456,	2.25511,	2.14280,	2.09651,	2.02936,	2.02191,	2.03121,	2.10418,	2.21079,	2.25989,	2.18554,	2.12900,	2.14423,	2.00646,	1.75382,	1.58452,	1.53861,	1.46511,	1.55243,	1.61316,	1.42318,	1.24748,	1.11619,	1.03246,	0.99311,	0.97509,	0.88520,	0.64867,	0.49650,	0.34517,	0.33852,	0.30568,	0.09822,	-0.00917,	-0.02313,	0.00196,	-0.05001,	-0.02020,	-0.01034,	-0.12493,	-0.16691,	-0.13661,	-0.03159,	0.06440,	0.25052,	0.33848,	0.25745,	0.14492,	0.12437,	0.14800,	0.28303,	0.46051,	0.43806,	0.37117,	0.48259,	0.60648,	0.80054,	1.13770,	1.47485,	1.70675,	1.86863,	1.78415,	1.66657,	1.59348,	1.46946,	1.37183,	1.31911,	1.37597,	1.35967,	1.25558,	1.21292,	1.14596,	1.22587,	1.29742,	1.38007,	1.44330,	1.57556,	1.63970,	1.62935,	1.43175,	1.21962,	0.96456,	0.79654,	0.88522,	0.88916,	0.87625,	0.90068,	0.70745,	0.46082,	0.29677,	0.20841,	-0.02648,	-0.23101,	-0.39393,	-0.44753,	-0.45536,	-0.60908,	-0.72744,	-0.91937,	-1.15079,	-1.42516,	-1.70238,	-1.72872,	-1.77420,	-1.65165,	-1.59510,	-1.63594,	-1.73762,	-1.74602,	-1.68388,	-1.67862,	-1.85252,	-2.07056,	-2.40107,	-2.64318,	-2.75101,	-2.90870,	-2.98199,	-2.87854,	-2.78489,	-2.85933,	-3.04853,	-3.20487,	-3.34880,	-3.25929,	-3.13865,	-2.97019,	-2.65630,	-2.52061,	-2.46027,	-2.40310,	-2.26061,	-2.04681,	-1.91708,	-1.71156,	-1.64234,	-1.54998,	-1.50330,	-1.40852,	-1.48811,	-1.55771,	-1.62997,	-1.61390,	-1.47782,	-1.16619,	-0.84055,	-0.61543,	-0.41261,	-0.29984,	-0.22859,	-0.03978,	0.03164,	0.02122,	0.09032,	0.26867,	0.29020,	0.35632,	0.43918,	0.37261,	0.34549,	0.22774,	0.18618,	0.29946,	0.44858,	0.64950,	0.62675,	0.61384,	0.51595,	0.49043,	0.60433,	0.73482,	0.73374,	0.73180,	0.71266,	0.75565,	0.66448,	0.65910,	0.74658,	0.81398,	0.98150,	0.97363,	0.79874,	0.77154,	0.86375,	0.97430,	0.97920,	0.96409,	0.79269,	0.51558,	0.20170,	-0.16726,	-0.32636,	-0.44975,	-0.56576,	-0.59931,	-0.64300,	-0.73035,	-0.88112,	-0.91249,	-1.05947,	-1.18341,	-1.25955,	-1.26125,	-1.27361,	-1.27747,	-1.25289,	-1.30636,	-1.52636,	-1.60367,	-1.45490,	-1.30706,	-1.15526,	-1.07932,	-1.10676,	-1.03331,	-0.97980,	-0.92957,	-0.84793,	-0.80326,	-0.87705,	-0.93006,	-0.82888,	-0.72368,	-0.57482,	-0.46518,	-0.55056,	-0.63618,	-0.71888,	-0.67882,	-0.53600,	-0.25400,	0.01530,	0.17875,	0.37069,	0.62017,	0.72247,	0.81559,	1.00299,	1.18479,	1.26248,	1.22315,	1.22986,	1.20759,	1.38527,	1.62743,	1.64829,	1.69411
-2.62098,	-2.68333,	-2.87936,	-3.13141,	-3.24942,	-3.24588,	-3.32980,	-3.31484,	-3.29037,	-3.28552,	-3.30635,	-3.29217,	-3.35221,	-3.47293,	-3.51211,	-3.63894,	-3.72936,	-3.70980,	-3.58713,	0.00000,	0.00000,	0.00000,	0.00000,	0.00000,	0.00000,	-2.60573,	-2.20061,	-2.00221,	-1.86292,	-1.60014,	-1.29814,	-1.01778,	-0.92088,	-0.73896,	-0.60598,	-0.52072,	-0.31105,	0.12938,	0.51005,	0.78627,	1.06414,	1.36837,	1.74859,	2.10767,	2.37614,	2.53665,	2.61365,	2.53330,	2.36537,	2.33702,	2.45686,	2.66680,	2.85659,	2.81273,	2.68864,	2.47870,	2.24363,	2.14675,	2.20108,	2.25971,	2.20329,	2.13314,	2.02634,	1.96589,	1.91152,	1.95676,	1.99945,	2.05617,	2.15174,	2.25681,	2.27728,	2.25822,	2.26444,	2.09811,	1.89410,	1.79243,	1.69355,	1.63595,	1.75424,	1.69775,	1.44316,	1.24957,	1.08428,	1.07015,	1.11208,	0.99825,	0.83303,	0.54962,	0.28278,	0.16408,	0.17031,	0.06472,	-0.23579,	-0.38704,	-0.45731,	-0.45484,	-0.46410,	-0.36353,	-0.30485,	-0.44025,	-0.52165,	-0.41593,	-0.19632,	-0.08046,	0.08180,	0.18982,	0.19153,	0.19329,	0.11477,	0.09651,	0.28002,	0.40154,	0.37631,	0.37941,	0.44043,	0.56323,	0.79621,	1.03240,	1.30438,	1.56181,	1.63905,	1.61044,	1.53866,	1.39345,	1.13821,	1.01483,	0.96416,	1.05377,	1.10716,	1.07172,	1.09026,	1.03679,	1.06262,	1.15781,	1.33505,	1.43381,	1.53319,	1.58738,	1.58979,	1.47898,	1.25482,	1.02066,	0.97322,	1.05698,	0.98733,	0.98243,	0.92895,	0.73058,	0.58489,	0.37759,	0.20141,	0.00030,	-0.30737,	-0.46315,	-0.49241,	-0.53188,	-0.76862,	-0.88103,	-1.05204,	-1.26631,	-1.48406,	-1.66080,	-1.60589,	-1.64728,	-1.57348,	-1.45856,	-1.38507,	-1.45543,	-1.56755,	-1.60658,	-1.64133,	-1.72180,	-1.88840,	-2.17280,	-2.32138,	-2.46317,	-2.76228,	-2.85097,	-2.80831,	-2.71883,	-2.67892,	-2.87376,	-3.12169,	-3.24127,	-3.27248,	-3.13293,	-2.86622,	-2.50964,	-2.42316,	-2.36556,	-2.29113,	-2.12453,	-1.88859,	-1.72688,	-1.48705,	-1.44461,	-1.46471,	-1.45486,	-1.32779,	-1.40508,	-1.53840,	-1.64130,	-1.63339,	-1.40219,	-1.09747,	-0.82892,	-0.56240,	-0.37634,	-0.36826,	-0.27945,	-0.13186,	-0.06849,	0.02415,	0.06318,	0.08184,	0.11690,	0.08766,	0.16247,	0.18150,	0.16767,	-0.01119,	-0.03598,	0.09952,	0.25530,	0.49783,	0.57096,	0.64934,	0.55832,	0.39301,	0.41582,	0.58989,	0.66219,	0.71414,	0.75377,	0.79026,	0.76061,	0.72544,	0.72313,	0.83590,	1.01979,	0.90346,	0.72457,	0.64900,	0.69046,	0.88219,	0.94271,	0.86835,	0.78608,	0.48940,	0.16178,	-0.10101,	-0.20824,	-0.39545,	-0.54489,	-0.57513,	-0.61498,	-0.68450,	-0.79469,	-0.79002,	-0.94814,	-1.15121,	-1.25135,	-1.15857,	-1.06768,	-1.06724,	-1.05308,	-1.13538,	-1.27247,	-1.28596,	-1.18009,	-0.97761,	-0.77651,	-0.79946,	-0.87771,	-0.87591,	-0.87201,	-0.74710,	-0.60480,	-0.64360,	-0.70333,	-0.77180,	-0.69268,	-0.50488,	-0.33162,	-0.26670,	-0.36455,	-0.43057,	-0.51495,	-0.51905,	-0.37474,	-0.02089,	0.31268,	0.49820,	0.69004,	0.97359,	1.10210,	1.11590,	1.22033,	1.34058,	1.45834,	1.47340,	1.42105,	1.41546,	1.60840,	1.72411,	1.69192,	1.72309
