-0.25932,	-0.20456,	-0.23882,	-0.25330,	-0.32651,	-0.51987,	-0.74073,	-0.93774,	-1.03590,	-1.09586,	-1.34660,	-1.62247,	-1.80057,	-1.91532,	-2.13415,	-2.32567,	-2.44686,	-2.61982,	-2.85554,	-2.93132,	-2.99713,	-2.92438,	-2.90041,	-2.82817,	-2.83743,	-2.78798,	-2.74120,	-2.70779,	-2.66045,	-2.63206,	-2.59662,	-2.55175,	-2.62112,	-2.48167,	-2.33129,	-2.25060,	-2.20483,	-2.05383,	-1.81422,	-1.69251,	-1.58229,	-1.34602,	-1.27681,	-1.32055,	-1.28308,	-1.11636,	-1.03497,	-1.01539,	-0.93344,	-0.91521,	-0.99186,	-0.95679,	-0.92169,	-0.74406,	-0.66966,	-0.63513,	-0.72121,	-0.74330,	-0.71426,	-0.76012,	-0.81718,	-0.89016,	-0.90763,	-0.73867,	-0.66820,	-0.61108,	-0.62485,	-0.61498,	-0.61096,	-0.70549,	-0.83727,	-1.01362,	-1.10818,	-1.05302,	-1.06442,	-1.11632,	-1.07187,	-0.89043,	-0.73616,	-0.60147,	-0.38307,	-0.20132,	-0.16453,	-0.13081,	-0.22831,	-0.30490,	-0.43165,	-0.53954,	-0.65731,	-0.70508,	-0.82333,	-1.15757,	-1.43853,	-1.58445,	-1.62049,	-1.58647,	-1.62505,	-1.48415,	-1.27896,	-1.17531,	-1.02244,	-0.83551,	-0.67528,	-0.62011,	-0.54642,	-0.30790,	-0.11685,	-0.06332,	-0.00469,	0.10944,	0.21352,	0.27177,	0.49361,	0.76258,	0.88564,	0.99866,	1.02737,	1.11306,	1.27245,	1.38000,	1.43921,	1.48604,	1.62683,	1.80213,	1.98824,	2.12177,	2.23950,	2.47206,	2.58335,	2.59098,	2.52858,	2.36528,	2.25474,	2.19095,	2.24394,	2.30932,	2.26385,	2.33233,	2.33498,	2.24320,	2.13828,	2.09488,	2.05484,	1.92748,	1.89002,	1.88407,	1.81445,	1.81477,	1.83412,	1.86138,	1.86457,	1.69156,	1.56802,	1.54096,	1.61129,	1.47546,	1.29089,	1.21555,	1.15405,	1.11711,	1.08228,	1.05751,	1.03790,	0.90512,	0.83608,	0.82431,	0.81804,	0.72273,	0.52937,	0.42430,	0.34458,	0.15435,	-0.00575,	-0.07693,	-0.17556,	-0.45236,	-0.70705,	-0.87947,	-1.10421,	-1.35294,	-1.60351,	-1.89012,	-2.06005,	-2.25099,	-2.42061,	-2.72447,	-2.92605,	-3.12700,	-3.33358,	-3.53199,	-3.72551,	-3.79434,	-3.76887,	-3.78968,	-3.69384,	-3.73383,	-3.80641,	-3.91760,	-3.97928,	-3.98673,	-4.04022,	-3.98516,	-3.81333,	-3.68360,	-3.52534,	-3.27655,	-2.98289,	-2.78255,	-2.51872,	-2.18426,	-2.04620,	-2.05836,	-2.00272,	-1.86971,	-1.60996,	-1.59015,	-1.59269,	-1.61994,	-1.56315,	-1.58655,	-1.50632,	-1.26556,	-1.06149,	-0.84214,	-0.55254,	-0.32843,	-0.05233,	0.01849,	0.01224,	-0.02871,	-0.01049,	0.02743,	0.06339,	0.17604,	0.29999,	0.20157,	0.00734,	-0.05312,	0.00449,	-0.05328,	-0.08942,	-0.00461,	0.06113,	0.12571,	0.21706,	0.17193,	0.25098,	0.26866,	0.31137,	0.28126,	0.36138,	0.47596,	0.61095,	0.75587,	0.86856,	0.94272,	0.98913,	0.81313,	0.73243,	0.62200,	0.59010,	0.60938,	0.64927,	0.72586,	0.71564,	0.67624,	0.71696,	0.65057,	0.56788,	0.59398,	0.61217,	0.54412,	0.62606,	0.97719,	1.27577,	1.31622,	1.39007,	1.44907,	1.57551,	1.53290,	1.53906,	1.47968,	1.35920,	1.15294,	0.90378,	0.75273,	0.56314,	0.34926,	0.19636,	-0.02682,	-0.08498,	-0.17215,	-0.23875,	-0.30647,	-0.42982,	-0.59957,	-0.85012,	-1.02822,	-1.09105,	-1.31664,	-1.63061,	-1.83827,	-1.90241,	-1.97551,	-2.08479,	-2.10468,	-2.09156,	-2.14189
-0.49418,	-0.46604,	-0.49310,	-0.47912,	-0.62072,	-0.88137,	-1.12713,	-1.23463,	-1.25760,	-1.34741,	-1.51715,	-1.54713,	-1.65708,	-1.85340,	-2.14838,	-2.33538,	-2.41557,	-2.60857,	-2.85405,	-2.89459,	-2.96586,	-2.91518,	-2.84721,	-2.72050,	-2.78480,	-2.85955,	-2.90919,	-2.82500,	-2.75831,	-2.70118,	-2.65528,	-2.66977,	-2.74035,	-2.64812,	-2.53776,	-2.41964,	-2.33306,	-2.18032,	-1.97284,	-1.80388,	-1.69981,	-1.60255,	-1.61426,	-1.55765,	-1.48558,	-1.37202,	-1.25802,	-1.13084,	-0.92518,	-0.91559,	-1.07519,	-1.05159,	-1.01624,	-0.80190,	-0.65766,	-0.50205,	-0.55415,	-0.65293,	-0.67409,	-0.72042,	-0.77022,	-0.77286,	-0.73007,	-0.60785,	-0.64282,	-0.68727,	-0.75233,	-0.70847,	-0.60455,	-0.61816,	-0.68425,	-0.73098,	-0.81638,	-0.91404,	-1.03622,	-0.98342,	-0.80802,	-0.63839,	-0.52304,	-0.41452,	-0.22738,	-0.08690,	-0.08082,	-0.07933,	-0.23107,	-0.43829,	-0.64847,	-0.67310,	-0.70237,	-0.72149,	-0.81064,	-1.07036,	-1.30088,	-1.44408,	-1.49847,	-1.52541,	-1.60234,	-1.49894,	-1.31838,	-1.18152,	-0.98178,	-0.79325,	-0.68295,	-0.59830,	-0.52112,	-0.37993,	-0.19821,	0.01304,	0.26202,	0.32862,	0.26954,	0.21291,	0.36868,	0.62426,	0.72866,	0.88294,	0.94608,	0.97318,	1.08766,	1.20314,	1.33723,	1.45994,	1.67968,	1.92199,	2.06464,	2.12707,	2.19750,	2.36598,	2.46031,	2.46831,	2.42853,	2.33059,	2.23965,	2.15425,	2.15346,	2.27402,	2.35207,	2.42530,	2.42415,	2.43631,	2.48020,	2.46038,	2.38273,	2.19426,	2.09146,	1.96082,	1.78758,	1.82919,	1.93942,	1.98542,	1.95222,	1.77055,	1.65859,	1.54698,	1.52812,	1.38956,	1.25201,	1.19562,	1.20019,	1.19485,	1.15410,	1.13732,	1.08076,	0.95521,	0.88022,	0.84899,	0.85819,	0.83467,	0.78339,	0.61547,	0.38523,	0.18419,	0.15869,	0.15544,	0.02956,	-0.24787,	-0.53035,	-0.78921,	-1.10886,	-1.40755,	-1.57947,	-1.79973,	-1.95201,	-2.15160,	-2.37540,	-2.77444,	-3.05897,	-3.24635,	-3.33868,	-3.48397,	-3.56899,	-3.60106,	-3.67895,	-3.78097,	-3.80270,	-3.84401,	-3.83988,	-3.90559,	-3.94784,	-3.95835,	-3.93843,	-3.86487,	-3.74555,	-3.62429,	-3.37460,	-3.20698,	-3.03779,	-2.83627,	-2.54134,	-2.20642,	-2.12525,	-2.16341,	-2.05870,	-1.94507,	-1.74496,	-1.72215,	-1.66364,	-1.69466,	-1.63700,	-1.61392,	-1.44396,	-1.21562,	-1.01969,	-0.82561,	-0.65932,	-0.47361,	-0.21601,	-0.09864,	0.00232,	-0.04860,	-0.09408,	-0.13013,	-0.02466,	0.15461,	0.23560,	0.18075,	0.10644,	0.01740,	-0.04495,	-0.19140,	-0.20084,	-0.05471,	0.03079,	0.06485,	0.11958,	0.03444,	0.03951,	0.06901,	0.23364,	0.24718,	0.36688,	0.49850,	0.62878,	0.69406,	0.75953,	0.85549,	0.88948,	0.75646,	0.68449,	0.58585,	0.62101,	0.72724,	0.82217,	0.86345,	0.91018,	0.84160,	0.79025,	0.76518,	0.84187,	0.91835,	0.84142,	0.69116,	0.74643,	1.06482,	1.31021,	1.33318,	1.44620,	1.50798,	1.60003,	1.54369,	1.58190,	1.47590,	1.28311,	1.07008,	0.87322,	0.77584,	0.69116,	0.60400,	0.49717,	0.22780,	0.04060,	-0.18954,	-0.28901,	-0.31263,	-0.40796,	-0.57689,	-0.77974,	-0.94420,	-1.09263,	-1.34003,	-1.46609,	-1.52511,	-1.59330,	-1.76760,	-1.98797,	-2.05527,	-2.10361,	-2.16319
-0.50606,	-0.62163,	-0.64344,	-0.67161,	-0.83725,	-1.03678,	-1.32816,	-1.47103,	-1.43759,	-1.51012,	-1.53988,	-1.53158,	-1.55398,	-1.78743,	-2.01214,	-2.06434,	-2.24318,	-2.52727,	-2.66613,	-2.76733,	-2.83849,	-2.82371,	-2.74838,	-2.70004,	-2.75324,	-2.78478,	-2.91598,	-2.89944,	-2.79023,	-2.77357,	-2.76422,	-2.76410,	-2.69561,	-2.66912,	-2.54227,	-2.42167,	-2.35084,	-2.18148,	-2.10817,	-2.07523,	-1.97595,	-1.93863,	-1.90030,	-1.88448,	-1.79275,	-1.67981,	-1.48313,	-1.18869,	-1.01380,	-1.06226,	-1.08471,	-1.08686,	-1.09210,	-0.91838,	-0.72140,	-0.54302,	-0.49271,	-0.45976,	-0.54167,	-0.70874,	-0.76019,	-0.79828,	-0.78387,	-0.67116,	-0.60735,	-0.70673,	-0.77305,	-0.71891,	-0.61932,	-0.52516,	-0.57347,	-0.63258,	-0.64066,	-0.76598,	-0.81435,	-0.73804,	-0.57238,	-0.45911,	-0.37183,	-0.16681,	-0.08518,	-0.11324,	-0.05615,	-0.11519,	-0.32052,	-0.54407,	-0.71065,	-0.70135,	-0.68641,	-0.59140,	-0.71568,	-1.05041,	-1.21489,	-1.34633,	-1.44083,	-1.48441,	-1.45455,	-1.39750,	-1.28467,	-1.14162,	-0.98589,	-0.75178,	-0.67795,	-0.69054,	-0.56816,	-0.41401,	-0.14738,	0.10663,	0.35542,	0.42347,	0.30681,	0.31240,	0.31621,	0.34380,	0.51610,	0.73736,	0.85020,	0.95773,	1.10714,	1.22130,	1.33943,	1.58091,	1.81134,	1.96494,	2.09905,	2.13768,	2.11592,	2.20831,	2.36369,	2.37607,	2.30608,	2.30754,	2.22874,	2.22242,	2.26151,	2.34458,	2.48704,	2.58857,	2.68045,	2.77172,	2.78198,	2.76480,	2.60325,	2.48083,	2.32774,	2.01925,	1.90520,	2.02314,	2.08462,	2.13728,	2.05192,	1.84387,	1.67577,	1.61396,	1.55703,	1.31588,	1.19064,	1.16136,	1.12180,	1.11937,	1.18337,	1.23448,	1.10802,	1.02099,	0.89868,	0.89953,	0.91932,	0.80533,	0.79844,	0.66995,	0.47647,	0.33006,	0.19568,	0.18725,	0.00472,	-0.14531,	-0.36282,	-0.75874,	-1.07803,	-1.32966,	-1.58961,	-1.77457,	-1.93685,	-2.12352,	-2.41672,	-2.75992,	-3.05498,	-3.36660,	-3.48520,	-3.57583,	-3.66610,	-3.65933,	-3.65456,	-3.67773,	-3.76789,	-3.72010,	-3.72139,	-3.75188,	-3.74500,	-3.83798,	-3.83120,	-3.74116,	-3.64213,	-3.47974,	-3.32168,	-3.15194,	-3.04929,	-2.75473,	-2.41575,	-2.25739,	-2.24748,	-2.20703,	-2.16424,	-2.02000,	-1.84460,	-1.78238,	-1.76485,	-1.74338,	-1.64441,	-1.68816,	-1.54896,	-1.28140,	-1.14764,	-0.98526,	-0.78233,	-0.49331,	-0.33753,	-0.18453,	-0.07143,	-0.08628,	-0.07606,	-0.21625,	-0.20414,	-0.00705,	0.09342,	0.18509,	0.12334,	0.07662,	-0.07242,	-0.20122,	-0.15022,	-0.11569,	-0.06168,	0.10664,	0.11114,	0.05363,	0.01880,	0.06037,	0.17758,	0.24497,	0.45352,	0.53106,	0.57965,	0.66561,	0.69692,	0.80154,	0.88151,	0.89730,	0.79244,	0.76757,	0.83408,	0.95670,	1.11097,	1.08938,	1.10625,	1.12142,	1.10591,	1.19951,	1.22838,	1.26386,	1.05258,	0.88030,	1.00842,	1.18653,	1.31216,	1.44908,	1.50862,	1.53555,	1.57236,	1.52768,	1.50690,	1.41374,	1.30398,	1.05829,	0.84044,	0.85540,	0.78812,	0.72295,	0.68374,	0.54915,	0.25481,	-0.07446,	-0.30043,	-0.41013,	-0.44738,	-0.61675,	-0.81597,	-0.87766,	-1.00964,	-1.16647,	-1.29767,	-1.35458,	-1.47465,	-1.67540,	-1.81552,	-1.99366,	-2.20121,	-2.18279
-0.54678,	-0.65302,	-0.69749,	-0.73392,	-0.88012,	-1.14731,	-1.43418,	-1.53653,	-1.49644,	-1.59747,	-1.59247,	-1.55757,	-1.50569,	-1.57501,	-1.72810,	-1.86283,	-2.09512,	-2.28646,	-2.39905,	-2.54375,	-2.64489,	-2.65066,	-2.59433,	-2.59312,	-2.66255,	-2.79724,	-2.96929,	-2.93919,	-2.82838,	-2.76667,	-2.71739,	-2.77251,	-2.67146,	-2.53966,	-2.38136,	-2.25486,	-2.21311,	-2.23766,	-2.33347,	-2.37253,	-2.31295,	-2.32889,	-2.26172,	-2.23809,	-2.10319,	-1.84071,	-1.59064,	-1.38578,	-1.26022,	-1.16544,	-1.07217,	-1.06412,	-1.09503,	-0.95872,	-0.76260,	-0.58490,	-0.44249,	-0.39430,	-0.50934,	-0.68368,	-0.78788,	-0.84475,	-0.82904,	-0.78703,	-0.68619,	-0.65773,	-0.66462,	-0.59717,	-0.50617,	-0.49281,	-0.57164,	-0.57787,	-0.52512,	-0.66654,	-0.69103,	-0.62997,	-0.52221,	-0.36653,	-0.25567,	-0.15901,	-0.18465,	-0.16716,	-0.05549,	-0.13906,	-0.35641,	-0.54997,	-0.65822,	-0.63683,	-0.61622,	-0.56371,	-0.71794,	-1.00057,	-1.11154,	-1.19464,	-1.25497,	-1.36038,	-1.35372,	-1.25695,	-1.15969,	-1.03759,	-0.90723,	-0.75080,	-0.71549,	-0.69820,	-0.52102,	-0.39051,	-0.15977,	0.05827,	0.26135,	0.41609,	0.39095,	0.32388,	0.17137,	0.17083,	0.41231,	0.66018,	0.87613,	1.11212,	1.32988,	1.43216,	1.48587,	1.65476,	1.80720,	1.98839,	2.18265,	2.24502,	2.22646,	2.21497,	2.27461,	2.33735,	2.33555,	2.38879,	2.35986,	2.33542,	2.34652,	2.45664,	2.62203,	2.70365,	2.79983,	2.90733,	2.88466,	2.90743,	2.82811,	2.66287,	2.40115,	2.12862,	2.14264,	2.25724,	2.27561,	2.32000,	2.24428,	2.01892,	1.80490,	1.68640,	1.52628,	1.29934,	1.22573,	1.19097,	1.14650,	1.09652,	1.09851,	1.24195,	1.23541,	1.17114,	1.04436,	0.95980,	0.82552,	0.66369,	0.66804,	0.55625,	0.38239,	0.27044,	0.07961,	0.06953,	-0.01117,	-0.14893,	-0.38457,	-0.70212,	-0.88902,	-1.16431,	-1.52184,	-1.74280,	-1.90031,	-2.06138,	-2.34290,	-2.69028,	-3.08992,	-3.43314,	-3.54140,	-3.61668,	-3.65699,	-3.63892,	-3.67560,	-3.61223,	-3.55991,	-3.47311,	-3.48423,	-3.55909,	-3.66158,	-3.77661,	-3.76416,	-3.70893,	-3.66235,	-3.50445,	-3.39958,	-3.21213,	-2.98095,	-2.69027,	-2.48701,	-2.35624,	-2.21754,	-2.14711,	-2.12716,	-1.98123,	-1.78693,	-1.70371,	-1.71497,	-1.74681,	-1.79117,	-1.85509,	-1.68245,	-1.37940,	-1.17506,	-1.00507,	-0.87237,	-0.56627,	-0.35779,	-0.22882,	-0.13261,	-0.14010,	-0.20833,	-0.36503,	-0.37502,	-0.22217,	-0.15407,	0.00988,	0.03268,	0.07076,	0.06081,	-0.07257,	-0.18558,	-0.19504,	0.00782,	0.28185,	0.33121,	0.29712,	0.27189,	0.29957,	0.35692,	0.39972,	0.49758,	0.54852,	0.62782,	0.73451,	0.82896,	0.93943,	0.92146,	0.97477,	1.01316,	1.05545,	1.14650,	1.26303,	1.32344,	1.29421,	1.35658,	1.41877,	1.39982,	1.50283,	1.47696,	1.47594,	1.35603,	1.19801,	1.19448,	1.28683,	1.50363,	1.69755,	1.71373,	1.65796,	1.63928,	1.58770,	1.53158,	1.46784,	1.33180,	1.10357,	0.97457,	1.02251,	0.97548,	0.90321,	0.76944,	0.64850,	0.43700,	0.08436,	-0.24682,	-0.45247,	-0.61500,	-0.78065,	-0.84912,	-0.80903,	-0.92986,	-1.08348,	-1.27659,	-1.37506,	-1.40518,	-1.52673,	-1.73178,	-1.99329,	-2.14053,	-2.09216
-0.48515,	-0.72633,	-0.82816,	-0.85403,	-1.00157,	-1.20677,	-1.39422,	-1.44861,	-1.44124,	-1.52422,	-1.52010,	-1.41050,	-1.39703,	-1.38622,	-1.53520,	-1.74917,	-1.91821,	-2.09708,	-2.34484,	-2.45115,	-2.60515,	-2.62540,	-2.55228,	-2.56777,	-2.59407,	-2.73547,	-2.93163,	-2.90124,	-2.88445,	-2.87260,	-2.68316,	-2.64727,	-2.54546,	-2.48077,	-2.34998,	-2.18900,	-2.20155,	-2.29362,	-2.42487,	-2.52095,	-2.57454,	-2.60162,	-2.46358,	-2.27264,	-2.12522,	-1.85485,	-1.70712,	-1.64537,	-1.46892,	-1.26709,	-1.22990,	-1.14473,	-1.12388,	-0.98392,	-0.80095,	-0.71497,	-0.52726,	-0.39792,	-0.48552,	-0.58648,	-0.76691,	-0.95476,	-0.91499,	-0.83229,	-0.68161,	-0.65577,	-0.65882,	-0.51499,	-0.45592,	-0.48690,	-0.52919,	-0.51725,	-0.49511,	-0.59858,	-0.57918,	-0.49021,	-0.53911,	-0.47378,	-0.39073,	-0.40386,	-0.36954,	-0.27412,	-0.26147,	-0.29688,	-0.47127,	-0.63737,	-0.68214,	-0.72255,	-0.69881,	-0.60238,	-0.69566,	-0.86081,	-0.98381,	-1.15595,	-1.16600,	-1.20123,	-1.17780,	-1.13109,	-1.11026,	-0.97137,	-0.89516,	-0.78473,	-0.61876,	-0.48100,	-0.30338,	-0.22730,	-0.08582,	0.11241,	0.19000,	0.30067,	0.33824,	0.20776,	0.16082,	0.25647,	0.34355,	0.52603,	0.80935,	1.11362,	1.44237,	1.53796,	1.56782,	1.72038,	1.82377,	2.06599,	2.30446,	2.29854,	2.31819,	2.36922,	2.39342,	2.38752,	2.30490,	2.37801,	2.37418,	2.35022,	2.46539,	2.60082,	2.65179,	2.68244,	2.82229,	2.99645,	2.93463,	2.86428,	2.85108,	2.64128,	2.44274,	2.31614,	2.23690,	2.24678,	2.26692,	2.27540,	2.30704,	2.07900,	1.83763,	1.72824,	1.54318,	1.38960,	1.35955,	1.22748,	1.15287,	1.13717,	1.09489,	1.21542,	1.22717,	1.24208,	1.14360,	0.92317,	0.72102,	0.53407,	0.41839,	0.29772,	0.22646,	0.22969,	0.11699,	0.01483,	-0.04928,	-0.29435,	-0.47459,	-0.58534,	-0.78631,	-1.13731,	-1.49685,	-1.82077,	-1.95647,	-2.10763,	-2.34706,	-2.61861,	-3.00765,	-3.28893,	-3.38019,	-3.56021,	-3.64601,	-3.57247,	-3.57437,	-3.47505,	-3.43130,	-3.36602,	-3.42917,	-3.59624,	-3.65597,	-3.70942,	-3.77581,	-3.80592,	-3.70742,	-3.49692,	-3.36113,	-3.27671,	-3.02308,	-2.84440,	-2.69452,	-2.41563,	-2.21814,	-2.21140,	-2.13884,	-2.05359,	-1.81258,	-1.70724,	-1.73577,	-1.75043,	-1.85399,	-1.91769,	-1.74046,	-1.50378,	-1.25988,	-0.95653,	-0.77268,	-0.54402,	-0.48361,	-0.43192,	-0.38264,	-0.41582,	-0.40625,	-0.43407,	-0.42816,	-0.35952,	-0.28934,	-0.11207,	0.03513,	0.06239,	0.14590,	-0.00131,	-0.19196,	-0.10432,	0.13018,	0.34308,	0.51647,	0.47406,	0.50588,	0.56207,	0.54755,	0.58770,	0.62262,	0.65655,	0.80616,	0.88558,	0.94918,	1.07562,	1.02675,	1.06989,	1.10688,	1.17957,	1.28897,	1.35695,	1.47983,	1.57831,	1.65762,	1.66495,	1.64636,	1.71701,	1.72071,	1.63253,	1.57827,	1.40693,	1.30097,	1.46523,	1.74022,	1.82627,	1.87622,	1.75624,	1.70363,	1.66202,	1.53139,	1.54068,	1.51256,	1.37683,	1.36152,	1.28886,	1.07619,	0.96941,	0.78771,	0.67036,	0.43613,	0.09505,	-0.21235,	-0.51949,	-0.74302,	-0.85543,	-0.84608,	-0.79493,	-0.84513,	-0.94898,	-1.10395,	-1.32406,	-1.38466,	-1.47483,	-1.73137,	-1.90716,	-1.95960,	-2.04773
-0.37919,	-0.60196,	-0.73883,	-0.80787,	-0.98847,	-1.17359,	-1.33085,	-1.34298,	-1.30415,	-1.35270,	-1.36166,	-1.31894,	-1.32461,	-1.30743,	-1.43673,	-1.57723,	-1.74438,	-2.01824,	-2.28659,	-2.34788,	-2.51439,	-2.60958,	-2.54705,	-2.50175,	-2.51908,	-2.65262,	-2.84476,	-2.90180,	-2.93445,	-2.89225,	-2.66986,	-2.58507,	-2.48257,	-2.42252,	-2.30927,	-2.14844,	-2.16595,	-2.22032,	-2.32729,	-2.44934,	-2.55805,	-2.63074,	-2.49556,	-2.28895,	-2.11035,	-1.85359,	-1.77631,	-1.69321,	-1.50167,	-1.33291,	-1.29177,	-1.15629,	-1.06555,	-0.94431,	-0.79919,	-0.73704,	-0.63255,	-0.52874,	-0.58352,	-0.67457,	-0.81870,	-0.95649,	-0.90777,	-0.82928,	-0.69535,	-0.65349,	-0.63641,	-0.44540,	-0.37316,	-0.41181,	-0.47851,	-0.50680,	-0.49251,	-0.55095,	-0.50127,	-0.47645,	-0.64060,	-0.65555,	-0.58840,	-0.53012,	-0.44676,	-0.42022,	-0.45697,	-0.44762,	-0.58198,	-0.74669,	-0.76805,	-0.76276,	-0.72293,	-0.62458,	-0.69478,	-0.88914,	-1.05541,	-1.21154,	-1.18651,	-1.16788,	-1.09578,	-0.96891,	-0.88680,	-0.72384,	-0.67292,	-0.61159,	-0.42621,	-0.23993,	-0.02925,	0.04203,	0.11950,	0.22588,	0.19419,	0.28559,	0.33908,	0.27975,	0.36856,	0.44919,	0.43190,	0.53918,	0.73791,	0.98775,	1.32981,	1.53363,	1.66305,	1.82628,	1.91848,	2.08938,	2.25312,	2.26468,	2.33951,	2.45251,	2.49735,	2.47305,	2.35713,	2.39944,	2.40688,	2.41447,	2.57929,	2.70454,	2.70247,	2.72818,	2.91934,	3.10349,	2.96362,	2.83649,	2.81636,	2.66041,	2.55849,	2.43147,	2.27512,	2.25354,	2.25170,	2.20427,	2.19975,	1.99595,	1.78250,	1.65820,	1.49154,	1.34623,	1.29674,	1.23765,	1.23997,	1.23751,	1.15868,	1.20655,	1.22520,	1.27626,	1.21540,	0.95831,	0.70373,	0.46944,	0.30270,	0.22193,	0.23000,	0.28557,	0.19923,	0.09658,	0.00440,	-0.28953,	-0.45672,	-0.57664,	-0.83551,	-1.13637,	-1.44038,	-1.79979,	-2.00289,	-2.16950,	-2.37099,	-2.62355,	-2.95885,	-3.19302,	-3.33481,	-3.52878,	-3.60817,	-3.53997,	-3.49932,	-3.36587,	-3.27582,	-3.23054,	-3.33277,	-3.52179,	-3.53230,	-3.55661,	-3.66959,	-3.73945,	-3.61788,	-3.41179,	-3.34772,	-3.30175,	-3.07467,	-2.92279,	-2.71590,	-2.44135,	-2.32353,	-2.32961,	-2.24888,	-2.19953,	-2.00477,	-1.87446,	-1.81760,	-1.77035,	-1.83190,	-1.90511,	-1.86004,	-1.69991,	-1.39940,	-1.02422,	-0.75913,	-0.55162,	-0.52245,	-0.50887,	-0.47699,	-0.47383,	-0.40265,	-0.36273,	-0.30644,	-0.23545,	-0.15395,	-0.04232,	-0.00818,	-0.00055,	0.12328,	0.07273,	0.03399,	0.15617,	0.29080,	0.44128,	0.61659,	0.56527,	0.57483,	0.66643,	0.69701,	0.71422,	0.71141,	0.72353,	0.82051,	0.91058,	1.04550,	1.17766,	1.13901,	1.19700,	1.31714,	1.44196,	1.55438,	1.61751,	1.78925,	1.93343,	2.00623,	2.00382,	2.00014,	2.03644,	1.95220,	1.79041,	1.70406,	1.51538,	1.45975,	1.63433,	1.83098,	1.88336,	1.97757,	1.90820,	1.83557,	1.78745,	1.65495,	1.64171,	1.66677,	1.61121,	1.58225,	1.43096,	1.18274,	1.03286,	0.84009,	0.74572,	0.54917,	0.25980,	0.00682,	-0.30811,	-0.54820,	-0.72840,	-0.79566,	-0.75134,	-0.72433,	-0.72795,	-0.87482,	-1.15743,	-1.28415,	-1.43292,	-1.66310,	-1.81391,	-1.92824,	-2.07383
-0.31972,	-0.49206,	-0.63837,	-0.77758,	-0.97681,	-1.23576,	-1.44570,	-1.41431,	-1.33370,	-1.31042,	-1.29634,	-1.25965,	-1.26568,	-1.27449,	-1.38786,	-1.42925,	-1.68288,	-1.97912,	-2.13962,	-2.19040,	-2.31261,	-2.40189,	-2.32719,	-2.28989,	-2.46057,	-2.66555,	-2.71478,	-2.80037,	-2.79516,	-2.70384,	-2.59291,	-2.51880,	-2.46132,	-2.41910,	-2.31988,	-2.21238,	-2.19713,	-2.24859,	-2.38515,	-2.49426,	-2.60814,	-2.70072,	-2.60925,	-2.41964,	-2.22240,	-1.94592,	-1.84887,	-1.67833,	-1.54148,	-1.37967,	-1.22420,	-1.10164,	-0.98168,	-0.83780,	-0.65420,	-0.56508,	-0.66566,	-0.72272,	-0.65562,	-0.72498,	-0.77368,	-0.77768,	-0.77759,	-0.73572,	-0.71387,	-0.72512,	-0.70201,	-0.54865,	-0.43569,	-0.48747,	-0.64568,	-0.68287,	-0.64404,	-0.65515,	-0.57510,	-0.55362,	-0.74545,	-0.81163,	-0.75278,	-0.59223,	-0.56642,	-0.62940,	-0.59811,	-0.59444,	-0.68007,	-0.75988,	-0.67260,	-0.54326,	-0.59902,	-0.65612,	-0.68017,	-0.91530,	-1.10041,	-1.16682,	-1.18236,	-1.14943,	-1.07150,	-0.89956,	-0.71611,	-0.55529,	-0.47623,	-0.46143,	-0.41557,	-0.25357,	-0.00078,	0.13535,	0.24300,	0.32692,	0.29644,	0.40236,	0.44903,	0.45950,	0.50963,	0.48541,	0.54073,	0.61383,	0.72379,	0.95598,	1.33289,	1.67369,	1.79491,	1.85395,	2.03332,	2.16467,	2.20737,	2.28629,	2.33399,	2.44555,	2.49202,	2.42323,	2.32707,	2.33782,	2.37557,	2.42162,	2.52014,	2.64698,	2.69005,	2.75365,	3.01020,	3.21253,	3.04994,	2.88480,	2.80280,	2.68177,	2.56961,	2.34390,	2.28435,	2.29850,	2.26761,	2.20795,	2.14693,	1.98458,	1.69504,	1.42043,	1.33081,	1.25560,	1.17638,	1.28184,	1.33408,	1.30881,	1.19695,	1.09826,	1.06803,	1.06989,	1.02990,	0.84255,	0.51268,	0.24448,	0.14900,	0.14011,	0.21371,	0.27829,	0.19157,	0.09539,	-0.00437,	-0.27535,	-0.48613,	-0.75288,	-0.95080,	-1.14938,	-1.39771,	-1.67700,	-1.86076,	-2.00590,	-2.30782,	-2.70830,	-2.98587,	-3.11349,	-3.31424,	-3.42944,	-3.50514,	-3.47889,	-3.41797,	-3.34018,	-3.21294,	-3.16028,	-3.25688,	-3.38524,	-3.43439,	-3.47911,	-3.56497,	-3.65112,	-3.54423,	-3.39281,	-3.37643,	-3.34108,	-3.11745,	-2.92991,	-2.69087,	-2.58384,	-2.51467,	-2.48625,	-2.43370,	-2.34611,	-2.14018,	-1.94502,	-1.87575,	-1.90076,	-1.91138,	-1.87983,	-1.95523,	-1.82173,	-1.53613,	-1.20603,	-0.87577,	-0.67166,	-0.60119,	-0.56924,	-0.50005,	-0.39234,	-0.36618,	-0.38343,	-0.29961,	-0.21036,	-0.07480,	0.00527,	-0.03855,	-0.04668,	0.09101,	0.14408,	0.26690,	0.31465,	0.41996,	0.56375,	0.63499,	0.60691,	0.63845,	0.79420,	0.84544,	0.71809,	0.66025,	0.78667,	0.82097,	0.95673,	1.18049,	1.30233,	1.32163,	1.37347,	1.56450,	1.75073,	1.86339,	1.97673,	2.08353,	2.14284,	2.22727,	2.25119,	2.31308,	2.35007,	2.21859,	1.97560,	1.77999,	1.55409,	1.55858,	1.61605,	1.74744,	1.86851,	1.96089,	1.99916,	2.00601,	2.01871,	1.90461,	1.70605,	1.63272,	1.72323,	1.68549,	1.57156,	1.39036,	1.18104,	1.03126,	0.91885,	0.70474,	0.42361,	0.14312,	-0.11837,	-0.37599,	-0.69001,	-0.83300,	-0.79357,	-0.70130,	-0.61782,	-0.70915,	-0.98691,	-1.16773,	-1.41756,	-1.64974,	-1.91286,	-2.12627,	-2.20707
-0.38059,	-0.52021,	-0.64691,	-0.84248,	-1.09763,	-1.26452,	-1.44113,	-1.36327,	-1.24491,	-1.30060,	-1.27155,	-1.14581,	-1.13176,	-1.12096,	-1.26278,	-1.38266,	-1.64623,	-1.84923,	-1.92893,	-1.93262,	-2.02555,	-2.22727,	-2.24119,	-2.26308,	-2.44647,	-2.57732,	-2.56359,	-2.59514,	-2.55987,	-2.60723,	-2.61072,	-2.54659,	-2.47580,	-2.45426,	-2.42509,	-2.40918,	-2.40835,	-2.33415,	-2.42951,	-2.53060,	-2.63151,	-2.82505,	-2.79607,	-2.59283,	-2.39654,	-2.04927,	-1.87656,	-1.72989,	-1.58480,	-1.30309,	-1.05561,	-0.91293,	-0.81614,	-0.82016,	-0.69047,	-0.60384,	-0.72463,	-0.74126,	-0.61223,	-0.59198,	-0.55566,	-0.61075,	-0.65383,	-0.67305,	-0.78845,	-0.87972,	-0.87765,	-0.75580,	-0.63975,	-0.58626,	-0.70356,	-0.72177,	-0.67301,	-0.78453,	-0.77234,	-0.72318,	-0.88520,	-0.92886,	-0.83343,	-0.68375,	-0.67905,	-0.68980,	-0.62371,	-0.59770,	-0.59855,	-0.65975,	-0.57270,	-0.43997,	-0.52176,	-0.61268,	-0.66991,	-0.86111,	-0.96257,	-1.09814,	-1.23263,	-1.21998,	-1.14381,	-0.95193,	-0.72011,	-0.55703,	-0.45675,	-0.34274,	-0.29356,	-0.18816,	0.03516,	0.12083,	0.21467,	0.34864,	0.40158,	0.58873,	0.70100,	0.69203,	0.64263,	0.59039,	0.69828,	0.76550,	0.86341,	1.02045,	1.30804,	1.65679,	1.78903,	1.89096,	2.13731,	2.24710,	2.22724,	2.21439,	2.17435,	2.31207,	2.37272,	2.28845,	2.21600,	2.23863,	2.27817,	2.39941,	2.54296,	2.66542,	2.74263,	2.77514,	3.00111,	3.26514,	3.16903,	3.00747,	2.90205,	2.74019,	2.58493,	2.40927,	2.42706,	2.41704,	2.36155,	2.18163,	1.92919,	1.75635,	1.47799,	1.20816,	1.15359,	1.12670,	1.12632,	1.24003,	1.20728,	1.16726,	1.03538,	0.86024,	0.74228,	0.65756,	0.57058,	0.49284,	0.30951,	0.07183,	0.04439,	0.05697,	0.08021,	0.16997,	0.10451,	-0.00853,	-0.04942,	-0.30161,	-0.55420,	-0.79428,	-0.88825,	-1.03365,	-1.21883,	-1.45998,	-1.71935,	-1.92186,	-2.32436,	-2.73088,	-2.90888,	-2.95151,	-3.07959,	-3.22391,	-3.43054,	-3.42219,	-3.39356,	-3.39191,	-3.31989,	-3.27798,	-3.35950,	-3.39345,	-3.27536,	-3.26981,	-3.32398,	-3.46641,	-3.54217,	-3.43615,	-3.36564,	-3.29527,	-3.02677,	-2.86279,	-2.70560,	-2.67843,	-2.59726,	-2.52998,	-2.43650,	-2.37201,	-2.33979,	-2.18165,	-2.12193,	-2.11806,	-2.02913,	-1.94688,	-1.96251,	-1.86597,	-1.77189,	-1.51198,	-1.18761,	-0.94546,	-0.81389,	-0.73033,	-0.60455,	-0.39406,	-0.22080,	-0.24071,	-0.21203,	-0.18828,	-0.15803,	-0.07066,	-0.02809,	0.01661,	0.23707,	0.34799,	0.46657,	0.52639,	0.69054,	0.75767,	0.71033,	0.65337,	0.58043,	0.73758,	0.78640,	0.63952,	0.65111,	0.83300,	0.91545,	1.03989,	1.12252,	1.24049,	1.32385,	1.42624,	1.69879,	1.96758,	2.11091,	2.24179,	2.42397,	2.49473,	2.60378,	2.64972,	2.59158,	2.56976,	2.46135,	2.14623,	1.91121,	1.70044,	1.66063,	1.63797,	1.75355,	1.88186,	1.97851,	2.06778,	2.01106,	2.01015,	1.91684,	1.69725,	1.64360,	1.75674,	1.76879,	1.71381,	1.44333,	1.19287,	1.07999,	0.97830,	0.76331,	0.47953,	0.13372,	-0.14412,	-0.27673,	-0.56347,	-0.71276,	-0.67722,	-0.68691,	-0.62080,	-0.62337,	-0.83804,	-0.99082,	-1.32068,	-1.70263,	-2.04237,	-2.21206,	-2.22905
-0.52365,	-0.63752,	-0.67278,	-0.91444,	-1.11248,	-1.24154,	-1.39653,	-1.31838,	-1.10752,	-1.11897,	-1.07439,	-0.97276,	-0.87090,	-0.94873,	-1.14749,	-1.38160,	-1.58725,	-1.76219,	-1.86038,	-1.88816,	-1.91343,	-2.10277,	-2.25068,	-2.34102,	-2.36345,	-2.43879,	-2.46216,	-2.55763,	-2.52222,	-2.60236,	-2.55560,	-2.39868,	-2.33695,	-2.30544,	-2.29773,	-2.45660,	-2.47169,	-2.41361,	-2.55038,	-2.69211,	-2.68480,	-2.73845,	-2.69403,	-2.62449,	-2.42876,	-2.12771,	-1.90052,	-1.77479,	-1.60985,	-1.33346,	-1.08412,	-0.90793,	-0.76298,	-0.78698,	-0.74889,	-0.70979,	-0.65104,	-0.58101,	-0.46468,	-0.46184,	-0.45570,	-0.53735,	-0.51198,	-0.47892,	-0.70662,	-0.86576,	-0.83375,	-0.82253,	-0.72966,	-0.64873,	-0.74568,	-0.76744,	-0.66989,	-0.75484,	-0.80573,	-0.86696,	-0.95754,	-1.00912,	-0.97795,	-0.90627,	-0.88126,	-0.84068,	-0.80257,	-0.73276,	-0.58087,	-0.49708,	-0.48029,	-0.49848,	-0.49884,	-0.57356,	-0.68979,	-0.81869,	-0.82997,	-0.96037,	-1.10912,	-1.06896,	-1.06099,	-0.94362,	-0.67256,	-0.56614,	-0.42984,	-0.17351,	-0.12641,	-0.14392,	0.01723,	0.14517,	0.28195,	0.37264,	0.45723,	0.65157,	0.74932,	0.75902,	0.67115,	0.61123,	0.67880,	0.75006,	0.93090,	1.15227,	1.34382,	1.53492,	1.69111,	1.86792,	2.09386,	2.21405,	2.17636,	2.12547,	2.11517,	2.34112,	2.36649,	2.23718,	2.27085,	2.30275,	2.30032,	2.44754,	2.52597,	2.58601,	2.70890,	2.82707,	3.03143,	3.21589,	3.15420,	3.04158,	2.83502,	2.68077,	2.52374,	2.43679,	2.37259,	2.26172,	2.20564,	2.03018,	1.69805,	1.48633,	1.33879,	1.19104,	1.05328,	1.02027,	1.02862,	1.08385,	1.00918,	1.01063,	0.86996,	0.67159,	0.56314,	0.37027,	0.14071,	0.14885,	0.05180,	-0.16558,	-0.18977,	-0.12114,	-0.06965,	0.00269,	-0.09645,	-0.17168,	-0.26201,	-0.43748,	-0.65709,	-0.77900,	-0.87516,	-1.04936,	-1.21738,	-1.34309,	-1.57581,	-1.82941,	-2.19410,	-2.46650,	-2.64935,	-2.66913,	-2.80155,	-2.99054,	-3.21669,	-3.15181,	-3.19750,	-3.35572,	-3.33953,	-3.30806,	-3.42084,	-3.34668,	-3.20924,	-3.21721,	-3.25002,	-3.34012,	-3.47028,	-3.41354,	-3.36325,	-3.18465,	-3.03376,	-2.91772,	-2.84292,	-2.79669,	-2.72554,	-2.59555,	-2.42043,	-2.30184,	-2.37910,	-2.35488,	-2.31826,	-2.22963,	-2.18352,	-2.10252,	-2.05380,	-1.90379,	-1.86962,	-1.63207,	-1.36965,	-1.16663,	-0.92517,	-0.75175,	-0.70407,	-0.44394,	-0.22150,	-0.23952,	-0.28839,	-0.26103,	-0.21911,	-0.10726,	-0.03590,	0.16384,	0.35339,	0.45779,	0.48766,	0.61273,	0.78368,	0.81442,	0.71800,	0.69467,	0.61201,	0.68718,	0.70132,	0.67691,	0.71567,	0.89870,	0.95678,	1.03109,	1.02393,	1.21371,	1.39680,	1.48804,	1.79381,	2.14786,	2.26111,	2.42943,	2.61150,	2.70584,	2.82231,	2.95079,	2.85527,	2.74602,	2.54294,	2.26800,	1.99852,	1.85460,	1.79841,	1.76890,	1.79081,	1.85939,	1.92683,	2.03821,	1.98016,	1.91848,	1.86730,	1.86654,	1.82650,	1.84136,	1.77778,	1.73276,	1.45588,	1.24940,	1.14130,	0.94600,	0.75295,	0.57208,	0.13549,	-0.14540,	-0.22584,	-0.47391,	-0.61998,	-0.53287,	-0.53758,	-0.55507,	-0.66760,	-0.77662,	-0.90530,	-1.24552,	-1.70773,	-2.05651,	-2.21257,	-2.24191
-0.74283,	-0.91235,	-0.90351,	-0.97526,	-1.05635,	-1.25109,	-1.39295,	-1.27344,	-1.05344,	-1.07823,	-1.02221,	-0.92051,	-0.79543,	-0.90470,	-1.10751,	-1.23585,	-1.37571,	-1.54383,	-1.70406,	-1.87539,	-1.92704,	-2.03805,	-2.20214,	-2.30600,	-2.28708,	-2.40616,	-2.46921,	-2.61049,	-2.56592,	-2.54677,	-2.41741,	-2.25288,	-2.21081,	-2.22465,	-2.23808,	-2.36172,	-2.38463,	-2.48197,	-2.66308,	-2.74168,	-2.65320,	-2.63224,	-2.55224,	-2.53206,	-2.37307,	-2.12015,	-1.88234,	-1.65575,	-1.49209,	-1.30195,	-1.07841,	-0.92162,	-0.73652,	-0.65266,	-0.59702,	-0.57602,	-0.49801,	-0.47585,	-0.37251,	-0.38407,	-0.41407,	-0.44769,	-0.38410,	-0.34841,	-0.57002,	-0.79151,	-0.81834,	-0.81345,	-0.74810,	-0.78893,	-0.90271,	-0.84462,	-0.69467,	-0.78209,	-0.84689,	-0.92723,	-1.00219,	-1.08669,	-1.15895,	-1.10575,	-1.02530,	-0.95495,	-0.89829,	-0.81903,	-0.62958,	-0.43774,	-0.41760,	-0.50964,	-0.50835,	-0.61712,	-0.72408,	-0.78665,	-0.74697,	-0.77334,	-0.85661,	-0.85151,	-0.90380,	-0.88214,	-0.67289,	-0.51782,	-0.30130,	-0.06052,	-0.05476,	-0.07658,	0.06502,	0.16446,	0.29380,	0.35582,	0.36931,	0.47162,	0.54427,	0.66242,	0.71276,	0.70784,	0.78417,	0.82231,	0.95068,	1.19503,	1.39387,	1.50368,	1.61083,	1.74193,	1.93032,	2.12355,	2.16175,	2.17851,	2.22800,	2.41225,	2.36409,	2.19011,	2.22054,	2.32385,	2.38170,	2.44981,	2.42418,	2.51395,	2.69420,	2.81099,	2.92103,	3.00673,	2.93586,	2.83521,	2.59950,	2.50921,	2.45401,	2.38568,	2.26374,	2.06754,	1.94768,	1.81624,	1.58135,	1.40291,	1.30411,	1.19200,	1.01558,	0.99469,	0.99179,	1.02353,	0.95248,	0.90461,	0.71075,	0.50040,	0.34297,	0.14458,	-0.04377,	-0.05364,	-0.19545,	-0.36575,	-0.40246,	-0.40252,	-0.38192,	-0.29901,	-0.36278,	-0.38914,	-0.47845,	-0.58423,	-0.68344,	-0.76142,	-0.84205,	-1.04334,	-1.27188,	-1.33388,	-1.43572,	-1.58757,	-1.84155,	-2.05828,	-2.29154,	-2.33544,	-2.51916,	-2.73076,	-2.91568,	-2.88052,	-3.04022,	-3.30579,	-3.38577,	-3.32449,	-3.31725,	-3.23551,	-3.26136,	-3.30550,	-3.27459,	-3.34849,	-3.52265,	-3.49079,	-3.46824,	-3.28284,	-3.20221,	-3.10221,	-2.93185,	-2.84028,	-2.72264,	-2.55827,	-2.41890,	-2.27962,	-2.31192,	-2.32633,	-2.31523,	-2.25138,	-2.29595,	-2.21072,	-2.11865,	-1.89861,	-1.79560,	-1.59391,	-1.43426,	-1.26361,	-1.03122,	-0.82377,	-0.75343,	-0.56068,	-0.45853,	-0.44647,	-0.41406,	-0.35996,	-0.34575,	-0.24547,	-0.19186,	0.04676,	0.23488,	0.33738,	0.44883,	0.62079,	0.81634,	0.90889,	0.79900,	0.76950,	0.73646,	0.76679,	0.74546,	0.74144,	0.73561,	0.92239,	0.96869,	1.03230,	1.08845,	1.32858,	1.50470,	1.57383,	1.77198,	2.09437,	2.31385,	2.50740,	2.56864,	2.67058,	2.85425,	3.01298,	2.85747,	2.69920,	2.46341,	2.22362,	1.99134,	1.89666,	1.96051,	1.98247,	1.97651,	2.02136,	2.01451,	2.07790,	2.07002,	2.02994,	2.04385,	2.15688,	2.07812,	2.03099,	1.90103,	1.83151,	1.61630,	1.40403,	1.14605,	0.83940,	0.62045,	0.51569,	0.24546,	0.04472,	-0.13001,	-0.41448,	-0.54582,	-0.46167,	-0.51990,	-0.62345,	-0.81465,	-0.90716,	-1.00207,	-1.25734,	-1.58305,	-1.88160,	-2.06045,	-2.12376
-0.96887,	-1.04555,	-1.07068,	-1.09154,	-1.09562,	-1.25895,	-1.30316,	-1.30469,	-1.13102,	-1.13562,	-1.10679,	-0.96204,	-0.80788,	-0.88542,	-0.99116,	-1.11536,	-1.24150,	-1.36451,	-1.50942,	-1.75698,	-1.96081,	-2.07488,	-2.15342,	-2.26545,	-2.27207,	-2.40856,	-2.47343,	-2.56049,	-2.59927,	-2.54339,	-2.35591,	-2.22656,	-2.21892,	-2.16654,	-2.20800,	-2.35328,	-2.38181,	-2.48899,	-2.52676,	-2.61667,	-2.52288,	-2.46158,	-2.41033,	-2.35974,	-2.16869,	-1.92151,	-1.64038,	-1.46317,	-1.37839,	-1.21971,	-0.95423,	-0.76439,	-0.65161,	-0.55218,	-0.41016,	-0.41429,	-0.43372,	-0.47620,	-0.37149,	-0.30421,	-0.39393,	-0.43373,	-0.35319,	-0.33653,	-0.53643,	-0.69104,	-0.79796,	-0.91187,	-0.90462,	-0.98665,	-0.97898,	-0.92954,	-0.81514,	-0.84837,	-0.90613,	-0.93331,	-0.95054,	-1.05889,	-1.15844,	-1.20926,	-1.18893,	-1.07211,	-0.91388,	-0.76790,	-0.69499,	-0.58741,	-0.50695,	-0.59996,	-0.63503,	-0.73592,	-0.80358,	-0.77489,	-0.78799,	-0.80833,	-0.79092,	-0.79912,	-0.88182,	-0.80132,	-0.60936,	-0.49831,	-0.27469,	-0.08386,	0.00125,	-0.01982,	0.04766,	0.17260,	0.25500,	0.28266,	0.28230,	0.30734,	0.40856,	0.55235,	0.62487,	0.72148,	0.90429,	0.99529,	0.94659,	1.03634,	1.29066,	1.41387,	1.49050,	1.61188,	1.79521,	2.10015,	2.16638,	2.15476,	2.25666,	2.37112,	2.25927,	2.14077,	2.17703,	2.21648,	2.27165,	2.29460,	2.35340,	2.50500,	2.60520,	2.73693,	2.75354,	2.75604,	2.73931,	2.65088,	2.46920,	2.39090,	2.24981,	2.16790,	2.09420,	1.95597,	1.74045,	1.52312,	1.39647,	1.26889,	1.13658,	1.05333,	0.92289,	0.96770,	0.93311,	0.86789,	0.83329,	0.74004,	0.48239,	0.28120,	0.13703,	-0.10072,	-0.23859,	-0.23485,	-0.29423,	-0.39591,	-0.57603,	-0.61114,	-0.62833,	-0.56410,	-0.50398,	-0.46654,	-0.49620,	-0.57369,	-0.79395,	-0.89613,	-0.90022,	-1.00478,	-1.26023,	-1.40215,	-1.40403,	-1.40889,	-1.59295,	-1.76687,	-2.00064,	-2.05534,	-2.28995,	-2.62457,	-2.79086,	-2.80797,	-3.04949,	-3.32213,	-3.35280,	-3.31028,	-3.25888,	-3.18046,	-3.22730,	-3.23874,	-3.30085,	-3.34507,	-3.51796,	-3.54306,	-3.49713,	-3.33628,	-3.25045,	-3.11334,	-3.01981,	-2.92334,	-2.73797,	-2.52586,	-2.46411,	-2.45480,	-2.44505,	-2.40833,	-2.42827,	-2.36727,	-2.39872,	-2.27005,	-2.14309,	-2.02368,	-1.88076,	-1.67476,	-1.55004,	-1.36162,	-1.06198,	-0.91078,	-0.89039,	-0.76186,	-0.67044,	-0.54260,	-0.53985,	-0.44869,	-0.43203,	-0.41594,	-0.39069,	-0.16472,	0.05202,	0.23852,	0.33431,	0.51946,	0.79091,	1.02297,	0.95642,	0.79714,	0.73229,	0.77355,	0.70822,	0.69726,	0.69304,	0.89473,	0.99294,	0.97525,	1.09465,	1.39496,	1.54968,	1.60245,	1.79757,	2.01622,	2.22340,	2.42731,	2.47948,	2.67879,	2.78631,	2.91981,	2.78839,	2.59758,	2.39875,	2.21260,	2.01478,	1.97654,	1.99051,	2.00777,	2.06444,	2.18339,	2.19738,	2.14156,	2.11696,	2.17174,	2.20265,	2.31015,	2.23441,	2.19051,	2.10602,	1.92667,	1.69067,	1.47199,	1.10435,	0.74425,	0.62615,	0.57032,	0.40095,	0.28367,	0.09142,	-0.14144,	-0.41561,	-0.44330,	-0.51365,	-0.67651,	-0.85803,	-0.91809,	-0.99660,	-1.13242,	-1.44508,	-1.79918,	-1.99668,	-2.04460
-1.03911,	-1.10352,	-1.14511,	-1.13632,	-1.12474,	-1.30778,	-1.33407,	-1.34952,	-1.20053,	-1.12404,	-1.06737,	-1.00211,	-0.89079,	-0.97280,	-1.00983,	-1.03612,	-1.11848,	-1.31284,	-1.49401,	-1.73227,	-1.96393,	-2.04665,	-2.02500,	-2.13587,	-2.20002,	-2.37628,	-2.46873,	-2.52226,	-2.59123,	-2.54189,	-2.33911,	-2.17593,	-2.21097,	-2.25552,	-2.32461,	-2.44536,	-2.46001,	-2.56018,	-2.48781,	-2.42156,	-2.26904,	-2.19961,	-2.17845,	-2.14842,	-1.92463,	-1.70183,	-1.44424,	-1.24654,	-1.14409,	-1.05732,	-0.82370,	-0.59790,	-0.51648,	-0.44327,	-0.29862,	-0.32126,	-0.39843,	-0.50634,	-0.45066,	-0.36404,	-0.40310,	-0.40520,	-0.33629,	-0.27048,	-0.44842,	-0.67559,	-0.88036,	-1.09450,	-1.11611,	-1.17001,	-1.08485,	-0.98912,	-0.88735,	-0.85527,	-0.88108,	-0.92472,	-0.93024,	-1.06261,	-1.22198,	-1.29060,	-1.24014,	-1.14146,	-0.94618,	-0.74085,	-0.73152,	-0.75138,	-0.70424,	-0.78550,	-0.82879,	-0.89659,	-0.92310,	-0.87350,	-0.92799,	-0.96790,	-0.90687,	-0.84501,	-0.90035,	-0.87330,	-0.72149,	-0.59350,	-0.36397,	-0.25497,	-0.18128,	-0.10635,	0.03118,	0.20459,	0.25459,	0.20423,	0.17932,	0.18612,	0.26054,	0.43771,	0.57303,	0.66720,	0.83608,	1.02811,	0.97610,	0.95419,	1.16275,	1.28996,	1.42915,	1.60614,	1.79884,	2.13962,	2.21411,	2.18169,	2.26175,	2.33664,	2.25226,	2.13990,	2.10949,	2.05406,	2.06004,	2.06079,	2.13924,	2.37019,	2.52399,	2.69289,	2.66617,	2.58772,	2.56845,	2.52581,	2.38180,	2.31489,	2.15235,	1.95046,	1.77556,	1.71406,	1.53543,	1.29688,	1.19821,	1.06676,	0.89167,	0.81183,	0.72831,	0.79751,	0.73366,	0.61261,	0.58716,	0.53235,	0.31179,	0.02304,	-0.20913,	-0.41054,	-0.43987,	-0.39245,	-0.43971,	-0.48176,	-0.59235,	-0.58361,	-0.60487,	-0.59325,	-0.54726,	-0.48506,	-0.52901,	-0.55156,	-0.75327,	-0.94929,	-1.08974,	-1.13165,	-1.24240,	-1.36788,	-1.34601,	-1.28619,	-1.43205,	-1.57583,	-1.81559,	-1.93101,	-2.18569,	-2.52911,	-2.71562,	-2.80032,	-3.03090,	-3.31617,	-3.41350,	-3.36900,	-3.25285,	-3.15240,	-3.24935,	-3.24654,	-3.22489,	-3.17880,	-3.27244,	-3.35545,	-3.40829,	-3.33346,	-3.31772,	-3.14614,	-3.01757,	-2.94211,	-2.88410,	-2.71644,	-2.67209,	-2.74134,	-2.73554,	-2.68160,	-2.71694,	-2.64785,	-2.61864,	-2.43619,	-2.30023,	-2.26394,	-2.13687,	-1.88321,	-1.63453,	-1.43406,	-1.23027,	-1.11812,	-1.05550,	-0.90757,	-0.84695,	-0.68247,	-0.58982,	-0.45584,	-0.41211,	-0.42140,	-0.49369,	-0.34771,	-0.21779,	0.03015,	0.29965,	0.55446,	0.75785,	1.04346,	1.07865,	0.88545,	0.74299,	0.72614,	0.66028,	0.69846,	0.71288,	0.86590,	0.96895,	0.94630,	1.07614,	1.40001,	1.64047,	1.68224,	1.71832,	1.83534,	2.06615,	2.33740,	2.41238,	2.61701,	2.75858,	2.86631,	2.78212,	2.61852,	2.39008,	2.22192,	1.98277,	1.92489,	1.96479,	2.00060,	1.99366,	2.11984,	2.21641,	2.15322,	2.13339,	2.24264,	2.26472,	2.31690,	2.24791,	2.23898,	2.21408,	1.99844,	1.71067,	1.48050,	1.20666,	0.90459,	0.74361,	0.68289,	0.59431,	0.54115,	0.33725,	0.12843,	-0.14816,	-0.26298,	-0.37894,	-0.54167,	-0.70181,	-0.76554,	-0.89767,	-1.03019,	-1.29967,	-1.66793,	-2.04058,	-2.19834
-1.05262,	-1.02140,	-1.10156,	-1.10782,	-1.14583,	-1.36401,	-1.46649,	-1.48884,	-1.36034,	-1.18798,	-1.05751,	-1.02362,	-1.03885,	-0.99881,	-0.97092,	-1.03522,	-1.06144,	-1.22599,	-1.40371,	-1.71709,	-1.81630,	-1.81504,	-1.78238,	-1.83117,	-2.03775,	-2.29744,	-2.39059,	-2.42824,	-2.43688,	-2.32833,	-2.25764,	-2.13849,	-2.19531,	-2.24001,	-2.36097,	-2.45296,	-2.42824,	-2.49510,	-2.42204,	-2.24145,	-2.06879,	-2.00120,	-1.96918,	-1.90662,	-1.74487,	-1.47739,	-1.20806,	-1.06923,	-0.88853,	-0.73528,	-0.53852,	-0.49963,	-0.45169,	-0.41206,	-0.39718,	-0.33621,	-0.39966,	-0.54938,	-0.53712,	-0.52552,	-0.48619,	-0.35341,	-0.38948,	-0.38097,	-0.57508,	-0.78200,	-1.04594,	-1.29821,	-1.26199,	-1.20676,	-1.10891,	-1.00906,	-0.95972,	-0.90910,	-0.92561,	-1.00534,	-1.11127,	-1.19255,	-1.24191,	-1.30712,	-1.17897,	-1.00616,	-0.79159,	-0.74665,	-0.78204,	-0.82905,	-0.88848,	-0.86477,	-0.92129,	-1.03644,	-1.03029,	-1.03831,	-1.08838,	-1.05293,	-1.06895,	-1.03250,	-1.04614,	-1.00414,	-0.88149,	-0.74670,	-0.48688,	-0.39150,	-0.37769,	-0.25909,	-0.08534,	0.06565,	0.08986,	0.01958,	-0.05589,	0.00157,	0.17554,	0.29486,	0.42482,	0.54570,	0.71312,	0.91135,	0.99735,	1.08905,	1.16202,	1.29396,	1.46659,	1.59897,	1.81536,	2.08411,	2.13376,	2.18876,	2.18961,	2.17536,	2.18592,	2.17356,	2.13984,	1.97925,	1.95299,	1.97550,	1.98607,	2.16219,	2.32692,	2.50123,	2.53427,	2.50869,	2.46049,	2.44194,	2.45204,	2.30835,	2.09305,	1.85116,	1.63968,	1.55469,	1.36592,	1.23852,	1.05474,	0.89952,	0.70956,	0.50106,	0.44167,	0.48134,	0.40186,	0.33873,	0.28201,	0.18092,	0.03431,	-0.24568,	-0.46275,	-0.63774,	-0.55364,	-0.46032,	-0.54832,	-0.61502,	-0.63613,	-0.59157,	-0.59092,	-0.61119,	-0.67342,	-0.69260,	-0.61283,	-0.55929,	-0.65067,	-0.80944,	-1.05645,	-1.18971,	-1.31126,	-1.29234,	-1.32063,	-1.29178,	-1.40845,	-1.64367,	-1.87087,	-2.01473,	-2.22261,	-2.40785,	-2.57734,	-2.80782,	-3.00642,	-3.23994,	-3.34572,	-3.38250,	-3.21038,	-3.04483,	-3.12023,	-3.11995,	-3.02259,	-2.94388,	-2.96813,	-3.09194,	-3.25013,	-3.33341,	-3.21586,	-3.00878,	-2.90361,	-2.81455,	-2.85851,	-2.83074,	-2.95822,	-2.98914,	-3.03013,	-3.01340,	-2.99301,	-3.04066,	-2.98267,	-2.75966,	-2.62369,	-2.53241,	-2.36432,	-2.16260,	-1.81439,	-1.58904,	-1.38824,	-1.32672,	-1.16229,	-0.92328,	-0.86726,	-0.78392,	-0.69086,	-0.60764,	-0.53757,	-0.45846,	-0.48091,	-0.46208,	-0.31522,	-0.04833,	0.28586,	0.65393,	0.86114,	1.10041,	1.01397,	0.91255,	0.73716,	0.64427,	0.71315,	0.73659,	0.75500,	0.86984,	0.94248,	1.00731,	1.16016,	1.32680,	1.58921,	1.66273,	1.72432,	1.78892,	2.05439,	2.40734,	2.52094,	2.61894,	2.75537,	2.79771,	2.77544,	2.69179,	2.47381,	2.20840,	1.99988,	1.94917,	1.93471,	2.00134,	2.00206,	2.11594,	2.09480,	2.09272,	2.12024,	2.18856,	2.28688,	2.23434,	2.13260,	2.18270,	2.17129,	1.99616,	1.76313,	1.44619,	1.27465,	1.10326,	1.00510,	0.89199,	0.79415,	0.76742,	0.59875,	0.42417,	0.23351,	0.03518,	-0.17591,	-0.35834,	-0.48750,	-0.66103,	-0.80991,	-0.94870,	-1.31317,	-1.68491,	-2.12170,	-2.34012
-1.09117,	-1.08938,	-1.19210,	-1.23866,	-1.32040,	-1.55397,	-1.70137,	-1.74559,	-1.60049,	-1.38853,	-1.21130,	-1.00347,	-0.99560,	-0.99119,	-0.97206,	-1.11667,	-1.14045,	-1.24459,	-1.36786,	-1.55405,	-1.54913,	-1.51185,	-1.49847,	-1.59689,	-1.86405,	-2.08936,	-2.14372,	-2.15506,	-2.15612,	-2.11004,	-2.12811,	-2.05944,	-2.13200,	-2.19443,	-2.33905,	-2.43030,	-2.37585,	-2.40781,	-2.33938,	-2.14685,	-1.95513,	-1.84699,	-1.77208,	-1.56039,	-1.38649,	-1.22621,	-1.01313,	-0.94032,	-0.77065,	-0.59588,	-0.42939,	-0.40317,	-0.37895,	-0.40853,	-0.48672,	-0.45121,	-0.47202,	-0.53126,	-0.50694,	-0.55211,	-0.55464,	-0.46764,	-0.56286,	-0.59346,	-0.80380,	-1.01749,	-1.29425,	-1.53036,	-1.43513,	-1.30900,	-1.18726,	-1.09023,	-1.06046,	-1.01858,	-1.06239,	-1.08348,	-1.16617,	-1.29415,	-1.31542,	-1.36695,	-1.22047,	-1.00230,	-0.80314,	-0.78126,	-0.79556,	-0.85268,	-0.92608,	-0.87854,	-0.95635,	-1.03982,	-0.99159,	-1.01399,	-1.05621,	-1.04116,	-1.12103,	-1.10958,	-1.12226,	-1.11918,	-1.05496,	-0.95138,	-0.69041,	-0.55713,	-0.53729,	-0.44120,	-0.30484,	-0.20449,	-0.20776,	-0.19659,	-0.20888,	-0.21507,	-0.07786,	-0.00365,	0.09330,	0.25018,	0.46124,	0.77711,	1.09042,	1.30662,	1.35165,	1.41825,	1.49142,	1.60315,	1.85943,	2.08930,	2.11641,	2.15573,	2.09302,	2.07302,	2.13589,	2.14449,	2.09560,	1.90012,	1.84839,	1.87223,	1.83730,	1.92928,	2.05239,	2.23062,	2.32613,	2.43345,	2.50924,	2.44534,	2.39007,	2.16485,	1.88470,	1.65234,	1.48638,	1.45464,	1.34873,	1.26032,	1.03727,	0.84614,	0.60508,	0.36794,	0.35056,	0.36888,	0.27239,	0.16861,	0.02332,	-0.10023,	-0.20747,	-0.43858,	-0.62459,	-0.78345,	-0.68475,	-0.58869,	-0.68067,	-0.77499,	-0.81914,	-0.78972,	-0.78808,	-0.77534,	-0.74883,	-0.82946,	-0.79530,	-0.69222,	-0.69790,	-0.78132,	-1.03316,	-1.22738,	-1.33860,	-1.29455,	-1.34096,	-1.34013,	-1.49933,	-1.74810,	-1.89402,	-1.99497,	-2.14467,	-2.28256,	-2.48012,	-2.72828,	-2.90873,	-3.12538,	-3.27400,	-3.37857,	-3.21861,	-3.01779,	-3.02896,	-3.01024,	-2.92406,	-2.85622,	-2.89058,	-3.01664,	-3.06406,	-3.19528,	-3.11775,	-2.91450,	-2.88024,	-2.81542,	-2.89541,	-2.93293,	-3.04739,	-3.07352,	-3.14602,	-3.15708,	-3.18265,	-3.30124,	-3.20324,	-2.96452,	-2.80291,	-2.66015,	-2.51203,	-2.33135,	-1.97994,	-1.76822,	-1.58323,	-1.53701,	-1.36924,	-1.10860,	-1.02812,	-0.97719,	-0.93132,	-0.87829,	-0.79740,	-0.62669,	-0.40505,	-0.37289,	-0.32172,	-0.12476,	0.12870,	0.52998,	0.79937,	1.04710,	1.02244,	0.97980,	0.81120,	0.72709,	0.81143,	0.82084,	0.91615,	1.06006,	1.13608,	1.21492,	1.27513,	1.32638,	1.54869,	1.61682,	1.68584,	1.73655,	1.97927,	2.33356,	2.44795,	2.49406,	2.59833,	2.63961,	2.68374,	2.66422,	2.59827,	2.33841,	2.04529,	1.96481,	1.89477,	1.96451,	2.00923,	2.13662,	2.15588,	2.17301,	2.18781,	2.22948,	2.31642,	2.23891,	2.19042,	2.27495,	2.25405,	2.08036,	1.82399,	1.47643,	1.32779,	1.20534,	1.13319,	1.00449,	0.87658,	0.84513,	0.71096,	0.59897,	0.47218,	0.25233,	-0.01901,	-0.28452,	-0.36752,	-0.55368,	-0.81209,	-1.03211,	-1.50273,	-1.92193,	-2.34848,	-2.54754
-1.08056,	-1.21754,	-1.35459,	-1.42061,	-1.51148,	-1.75289,	-1.89414,	-1.83756,	-1.71200,	-1.53534,	-1.34879,	-1.07061,	-0.95786,	-0.92091,	-0.98444,	-1.06805,	-1.05225,	-1.16538,	-1.35502,	-1.42051,	-1.34150,	-1.32832,	-1.34207,	-1.40734,	-1.66084,	-1.90806,	-1.98315,	-1.89296,	-1.95554,	-2.04651,	-2.07061,	-2.00451,	-2.04743,	-2.17770,	-2.33070,	-2.38504,	-2.28707,	-2.28558,	-2.19488,	-1.89837,	-1.71818,	-1.61991,	-1.49491,	-1.22545,	-0.99704,	-0.87306,	-0.82531,	-0.74781,	-0.56041,	-0.43805,	-0.42412,	-0.41544,	-0.37119,	-0.47437,	-0.62919,	-0.58084,	-0.55046,	-0.59279,	-0.63051,	-0.63419,	-0.71641,	-0.77970,	-0.85112,	-0.85034,	-0.99257,	-1.22988,	-1.51793,	-1.69227,	-1.54454,	-1.40013,	-1.26882,	-1.07761,	-1.06247,	-1.08703,	-1.13175,	-1.13639,	-1.16381,	-1.25184,	-1.35680,	-1.37610,	-1.15755,	-0.95158,	-0.91116,	-0.95224,	-0.93013,	-1.02400,	-1.08711,	-0.96742,	-1.00416,	-1.09565,	-1.10270,	-1.05177,	-1.06079,	-1.13319,	-1.17152,	-1.11063,	-1.07886,	-1.12861,	-1.16635,	-1.09368,	-0.84661,	-0.69509,	-0.64838,	-0.47216,	-0.37140,	-0.40690,	-0.46292,	-0.44859,	-0.42304,	-0.41225,	-0.39386,	-0.34450,	-0.12654,	0.09011,	0.24328,	0.58993,	1.09871,	1.38350,	1.43337,	1.50173,	1.53095,	1.57254,	1.72929,	1.96346,	2.03255,	1.97759,	1.93814,	2.00316,	2.13918,	2.14000,	2.00970,	1.81069,	1.75352,	1.76796,	1.73255,	1.87535,	1.99207,	2.09046,	2.20401,	2.36851,	2.52793,	2.51207,	2.32080,	1.99335,	1.78080,	1.57033,	1.35612,	1.27881,	1.25510,	1.13981,	0.88175,	0.71597,	0.52488,	0.28545,	0.20483,	0.22224,	0.17690,	-0.04556,	-0.23012,	-0.30790,	-0.35547,	-0.51880,	-0.72672,	-0.84790,	-0.75592,	-0.70741,	-0.82201,	-0.87013,	-0.90526,	-0.97657,	-1.00687,	-0.97749,	-0.84901,	-0.83799,	-0.87003,	-0.82186,	-0.67242,	-0.69253,	-1.01490,	-1.35191,	-1.46578,	-1.48004,	-1.57166,	-1.54980,	-1.62814,	-1.85215,	-2.01986,	-2.07608,	-2.09739,	-2.29279,	-2.50286,	-2.67087,	-2.78977,	-2.95555,	-3.17167,	-3.28454,	-3.14391,	-2.95293,	-2.93589,	-2.85093,	-2.71229,	-2.73204,	-2.83784,	-2.98137,	-2.96834,	-3.01554,	-2.95443,	-2.85723,	-2.78928,	-2.75536,	-2.93834,	-3.12734,	-3.20233,	-3.23883,	-3.33807,	-3.32992,	-3.28934,	-3.41183,	-3.38007,	-3.17946,	-2.91138,	-2.78865,	-2.65857,	-2.41121,	-2.05344,	-1.85132,	-1.75760,	-1.70679,	-1.54619,	-1.29640,	-1.20773,	-1.11105,	-0.95893,	-0.95073,	-0.92624,	-0.73619,	-0.40709,	-0.27232,	-0.23705,	-0.20001,	0.04640,	0.47337,	0.73820,	0.90631,	0.98195,	0.98680,	0.81307,	0.76959,	0.92741,	0.93949,	0.99460,	1.09973,	1.27785,	1.32289,	1.30733,	1.37857,	1.58634,	1.66227,	1.65678,	1.68719,	1.90462,	2.22117,	2.29118,	2.33042,	2.52430,	2.56012,	2.61218,	2.62897,	2.61773,	2.43419,	2.16204,	1.97086,	1.93774,	2.06651,	2.12503,	2.15691,	2.21566,	2.25495,	2.20945,	2.22448,	2.35850,	2.31424,	2.24878,	2.27010,	2.29883,	2.07457,	1.74390,	1.46932,	1.36325,	1.29971,	1.19673,	1.07077,	0.98371,	0.96300,	0.82011,	0.73882,	0.74551,	0.50516,	0.14287,	-0.20643,	-0.36093,	-0.53487,	-0.79801,	-1.16717,	-1.65635,	-2.04401,	-2.47029,	-2.75950
-1.14982,	-1.21309,	-1.39709,	-1.51430,	-1.57948,	-1.76724,	-1.89453,	-1.90894,	-1.80493,	-1.52731,	-1.34996,	-1.26619,	-1.16822,	-0.98769,	-0.97275,	-1.00707,	-0.99219,	-1.02333,	-1.20271,	-1.26892,	-1.16932,	-1.12899,	-1.15788,	-1.29304,	-1.54744,	-1.69595,	-1.75000,	-1.77066,	-1.93652,	-2.01226,	-2.07051,	-2.15091,	-2.21519,	-2.23248,	-2.33024,	-2.31810,	-2.14308,	-2.05205,	-1.93296,	-1.72998,	-1.60283,	-1.41167,	-1.21188,	-1.03405,	-0.83419,	-0.66650,	-0.67914,	-0.65364,	-0.47572,	-0.25870,	-0.26372,	-0.35839,	-0.31506,	-0.39012,	-0.61060,	-0.71711,	-0.75810,	-0.72763,	-0.76459,	-0.83690,	-0.96828,	-0.99539,	-1.06116,	-1.18488,	-1.28519,	-1.32300,	-1.50424,	-1.61958,	-1.45236,	-1.30698,	-1.21164,	-1.15670,	-1.21003,	-1.13190,	-1.05033,	-1.12147,	-1.25532,	-1.30874,	-1.40116,	-1.42770,	-1.22842,	-0.97220,	-0.94896,	-1.09670,	-1.13318,	-1.20230,	-1.22353,	-1.16065,	-1.24371,	-1.27522,	-1.24015,	-1.22227,	-1.26367,	-1.25489,	-1.18854,	-1.17577,	-1.15878,	-1.07702,	-1.08925,	-1.07166,	-0.87871,	-0.74644,	-0.66029,	-0.50619,	-0.47206,	-0.51177,	-0.56998,	-0.67678,	-0.76780,	-0.69524,	-0.65373,	-0.62424,	-0.32721,	0.03688,	0.25851,	0.54580,	1.04853,	1.40701,	1.51315,	1.56350,	1.52925,	1.54606,	1.64173,	1.73690,	1.76029,	1.79701,	1.89140,	1.92817,	2.00410,	2.09650,	2.01362,	1.77350,	1.71770,	1.76816,	1.82644,	1.96866,	1.95905,	2.03726,	2.22585,	2.35252,	2.37996,	2.39600,	2.23902,	1.86812,	1.63696,	1.49846,	1.37107,	1.19866,	1.07100,	0.92592,	0.69341,	0.50644,	0.26547,	0.06583,	0.04552,	0.01674,	-0.08993,	-0.25446,	-0.33814,	-0.47050,	-0.62119,	-0.69439,	-0.74098,	-0.80065,	-0.70486,	-0.72120,	-0.87897,	-0.96550,	-1.08775,	-1.13752,	-1.08004,	-1.06989,	-0.99714,	-0.89580,	-0.87235,	-0.89632,	-0.77275,	-0.73616,	-0.96267,	-1.34256,	-1.55525,	-1.64249,	-1.76700,	-1.79648,	-1.88526,	-2.02988,	-2.08972,	-2.15473,	-2.24189,	-2.39539,	-2.48500,	-2.67746,	-2.86326,	-2.90653,	-2.90105,	-2.97095,	-2.89390,	-2.77077,	-2.74938,	-2.65657,	-2.63387,	-2.68620,	-2.71007,	-2.87329,	-3.00864,	-3.01409,	-2.85531,	-2.83238,	-2.86156,	-2.87956,	-3.01147,	-3.28401,	-3.46941,	-3.52093,	-3.54279,	-3.49802,	-3.46491,	-3.51108,	-3.40099,	-3.25492,	-3.11689,	-3.00269,	-2.70615,	-2.41686,	-2.18924,	-2.01840,	-1.82316,	-1.73033,	-1.53244,	-1.25173,	-1.14123,	-1.00831,	-0.87516,	-0.87196,	-0.80370,	-0.68034,	-0.52903,	-0.38595,	-0.23616,	-0.19169,	0.01045,	0.40856,	0.74648,	0.89001,	0.96032,	1.01107,	0.92253,	0.89015,	0.94962,	0.93284,	1.00946,	1.05017,	1.14653,	1.22358,	1.42477,	1.54373,	1.56489,	1.58308,	1.69900,	1.76336,	1.94109,	2.21340,	2.26726,	2.30422,	2.40992,	2.44200,	2.61946,	2.65184,	2.48984,	2.28521,	2.14584,	1.97000,	1.90040,	2.03125,	2.22443,	2.27436,	2.29153,	2.34513,	2.31897,	2.29835,	2.29427,	2.20598,	2.23378,	2.26584,	2.18237,	1.87931,	1.66795,	1.49260,	1.32559,	1.28357,	1.32044,	1.28112,	1.26789,	1.25571,	1.07174,	0.94260,	0.85013,	0.55758,	0.27767,	-0.02679,	-0.35708,	-0.66437,	-0.91060,	-1.30222,	-1.79589,	-2.17161,	-2.48779,	-2.77659
-1.22620,	-1.21691,	-1.43016,	-1.54851,	-1.56357,	-1.69827,	-1.85559,	-1.87241,	-1.77060,	-1.53128,	-1.33390,	-1.36963,	-1.31882,	-1.08662,	-0.99729,	-0.97725,	-1.08443,	-1.08133,	-1.19198,	-1.15899,	-1.13323,	-1.06899,	-1.10257,	-1.21329,	-1.33717,	-1.47331,	-1.55994,	-1.71289,	-1.86044,	-1.95983,	-2.12999,	-2.28966,	-2.36885,	-2.36283,	-2.44953,	-2.36464,	-2.11726,	-1.96473,	-1.89017,	-1.70612,	-1.54508,	-1.40401,	-1.15737,	-1.00430,	-0.80988,	-0.57457,	-0.56090,	-0.50623,	-0.41069,	-0.15063,	-0.09793,	-0.15184,	-0.21469,	-0.32753,	-0.63009,	-0.86346,	-0.85918,	-0.83312,	-0.92556,	-1.04565,	-1.02953,	-0.97968,	-1.15413,	-1.35677,	-1.38558,	-1.29028,	-1.39246,	-1.47920,	-1.34246,	-1.22035,	-1.22723,	-1.25644,	-1.26372,	-1.18590,	-1.03885,	-1.14572,	-1.41087,	-1.50775,	-1.61128,	-1.60157,	-1.51328,	-1.29283,	-1.18155,	-1.24531,	-1.36486,	-1.44550,	-1.44899,	-1.45697,	-1.43674,	-1.40537,	-1.35401,	-1.35865,	-1.32700,	-1.23461,	-1.24920,	-1.30185,	-1.27635,	-1.14565,	-1.17430,	-1.19167,	-1.04236,	-0.94344,	-0.88438,	-0.72006,	-0.56260,	-0.56618,	-0.62027,	-0.76783,	-0.95036,	-0.85829,	-0.79307,	-0.71263,	-0.45842,	-0.11926,	0.19103,	0.52287,	0.96158,	1.29493,	1.44275,	1.49333,	1.62411,	1.66930,	1.61564,	1.55384,	1.60830,	1.78936,	1.84701,	1.78745,	1.81109,	1.94306,	1.88971,	1.65701,	1.64470,	1.74797,	1.82795,	1.93302,	1.92865,	1.94728,	2.09830,	2.20860,	2.10672,	2.11360,	2.03000,	1.74976,	1.48193,	1.29455,	1.24488,	1.06294,	0.84293,	0.60559,	0.43764,	0.21213,	0.06145,	-0.07491,	-0.17050,	-0.26876,	-0.37178,	-0.39555,	-0.52651,	-0.73733,	-0.93278,	-0.98979,	-0.95660,	-0.95476,	-0.78534,	-0.76880,	-0.96976,	-1.11160,	-1.15763,	-1.16792,	-1.11933,	-1.08991,	-1.10718,	-1.01746,	-0.98297,	-1.01480,	-0.94645,	-0.97921,	-1.09091,	-1.34181,	-1.49412,	-1.69315,	-1.83262,	-1.95900,	-1.95236,	-1.96339,	-2.06309,	-2.21279,	-2.35582,	-2.34959,	-2.43330,	-2.68123,	-2.85579,	-2.81459,	-2.69327,	-2.76401,	-2.74317,	-2.69174,	-2.72766,	-2.68995,	-2.65122,	-2.68507,	-2.68937,	-2.78889,	-3.02258,	-3.03994,	-2.86690,	-2.86903,	-2.96224,	-3.11092,	-3.16470,	-3.40383,	-3.59250,	-3.75894,	-3.71901,	-3.68695,	-3.56656,	-3.44349,	-3.36415,	-3.28779,	-3.27423,	-3.09066,	-2.77269,	-2.53016,	-2.31522,	-2.10809,	-1.85157,	-1.71104,	-1.41670,	-1.06502,	-0.94025,	-0.83955,	-0.67696,	-0.67436,	-0.69625,	-0.62217,	-0.61069,	-0.50000,	-0.29170,	-0.12787,	0.15714,	0.43234,	0.77767,	0.94506,	1.10134,	1.09571,	1.05637,	0.93113,	0.91412,	0.97583,	0.97974,	0.93731,	0.95886,	1.18257,	1.48788,	1.52449,	1.42333,	1.39387,	1.54424,	1.62220,	1.79732,	2.07127,	2.16369,	2.17849,	2.28462,	2.36548,	2.50316,	2.54584,	2.31919,	2.11644,	2.08544,	1.97807,	1.93543,	1.92942,	2.13418,	2.23337,	2.32156,	2.30198,	2.28218,	2.20597,	2.08927,	2.05917,	2.09041,	2.10084,	1.97647,	1.81248,	1.71775,	1.52756,	1.35861,	1.36321,	1.45528,	1.43732,	1.44105,	1.40258,	1.17557,	0.93117,	0.78362,	0.53499,	0.24644,	0.05571,	-0.27365,	-0.68075,	-0.96001,	-1.33630,	-1.73467,	-2.16452,	-2.48052,	-2.76976
-1.27580,	-1.30206,	-1.51348,	-1.66098,	-1.64238,	-1.68906,	-1.84570,	-1.89679,	-1.82284,	-1.64335,	-1.42147,	-1.30926,	-1.23298,	-1.08670,	-1.04438,	-0.99710,	-1.14665,	-1.18856,	-1.25440,	-1.13978,	-1.12643,	-1.07067,	-1.09575,	-1.20295,	-1.28608,	-1.45100,	-1.54595,	-1.64736,	-1.77487,	-1.98244,	-2.19057,	-2.21163,	-2.26747,	-2.36261,	-2.49227,	-2.45129,	-2.19964,	-2.00617,	-1.97061,	-1.81484,	-1.63587,	-1.53968,	-1.28616,	-1.01041,	-0.74593,	-0.50055,	-0.46560,	-0.32367,	-0.23260,	-0.05261,	-0.01238,	-0.02993,	-0.17250,	-0.37341,	-0.72098,	-1.00210,	-0.95974,	-0.95264,	-1.08442,	-1.14207,	-1.02787,	-1.01797,	-1.23250,	-1.27581,	-1.19416,	-1.12211,	-1.21924,	-1.36555,	-1.29570,	-1.16222,	-1.20233,	-1.26758,	-1.26188,	-1.24281,	-1.15843,	-1.24614,	-1.51248,	-1.69063,	-1.85289,	-1.78554,	-1.70538,	-1.57255,	-1.45834,	-1.45383,	-1.58469,	-1.67675,	-1.66590,	-1.68429,	-1.60746,	-1.54082,	-1.44386,	-1.33979,	-1.21975,	-1.19213,	-1.32621,	-1.30748,	-1.22297,	-1.20886,	-1.34622,	-1.44035,	-1.34304,	-1.20730,	-1.12327,	-0.96303,	-0.72970,	-0.67603,	-0.71398,	-0.78624,	-0.90421,	-0.86406,	-0.84519,	-0.69951,	-0.45271,	-0.22758,	0.04796,	0.42383,	0.87176,	1.17731,	1.30501,	1.34088,	1.53152,	1.56785,	1.42713,	1.35693,	1.46646,	1.62114,	1.58685,	1.57542,	1.68639,	1.79065,	1.72881,	1.53400,	1.53653,	1.69721,	1.77542,	1.79191,	1.76544,	1.73978,	1.82201,	1.95895,	1.91985,	1.89067,	1.79767,	1.61837,	1.42247,	1.17876,	1.06853,	0.88060,	0.62710,	0.34571,	0.20716,	-0.01388,	-0.13005,	-0.26937,	-0.44991,	-0.54316,	-0.57836,	-0.62977,	-0.87322,	-1.01437,	-1.05759,	-1.13109,	-1.15077,	-1.16144,	-0.99539,	-0.89349,	-1.04235,	-1.21709,	-1.25611,	-1.28258,	-1.28680,	-1.23499,	-1.20717,	-1.19120,	-1.22697,	-1.21110,	-1.03896,	-1.08917,	-1.22812,	-1.39436,	-1.46520,	-1.68829,	-1.84149,	-2.00062,	-1.98918,	-1.98634,	-2.16282,	-2.33792,	-2.40283,	-2.33126,	-2.44552,	-2.58919,	-2.56072,	-2.51194,	-2.51140,	-2.68698,	-2.78333,	-2.76241,	-2.78113,	-2.77863,	-2.75288,	-2.78524,	-2.80726,	-2.85448,	-2.97235,	-3.00248,	-2.90933,	-2.90741,	-2.93095,	-3.10925,	-3.19609,	-3.40001,	-3.55146,	-3.76757,	-3.74422,	-3.72015,	-3.58934,	-3.43939,	-3.42556,	-3.35867,	-3.29445,	-3.11092,	-2.91253,	-2.68259,	-2.28114,	-2.01049,	-1.80957,	-1.65914,	-1.37289,	-0.97351,	-0.76604,	-0.68581,	-0.59179,	-0.64680,	-0.75316,	-0.67413,	-0.52253,	-0.38421,	-0.22828,	-0.01245,	0.40516,	0.64123,	0.87321,	1.00870,	1.18234,	1.13244,	1.06223,	0.86363,	0.77311,	0.83990,	0.79069,	0.75377,	0.85948,	1.13094,	1.30711,	1.26135,	1.29182,	1.28862,	1.35783,	1.41817,	1.53695,	1.82131,	2.01513,	2.04262,	2.11975,	2.19009,	2.25705,	2.30701,	2.23820,	2.14435,	2.14300,	2.07655,	2.12763,	2.05579,	2.11148,	2.15640,	2.24436,	2.15264,	2.09494,	1.99905,	1.83233,	1.81005,	1.79039,	1.78716,	1.80255,	1.80229,	1.70001,	1.50602,	1.50595,	1.57476,	1.58282,	1.49359,	1.36294,	1.25009,	1.06221,	0.81400,	0.65240,	0.41033,	0.06898,	-0.08391,	-0.25093,	-0.59502,	-0.92447,	-1.30273,	-1.57511,	-1.96550,	-2.36376,	-2.71339
-1.45446,	-1.43630,	-1.55014,	-1.70041,	-1.79476,	-1.83213,	-1.90323,	-1.96347,	-1.89860,	-1.68694,	-1.55526,	-1.40775,	-1.21266,	-1.08283,	-1.14555,	-1.20105,	-1.35283,	-1.31578,	-1.23690,	-1.08456,	-1.09908,	-1.13587,	-1.05449,	-1.11863,	-1.30972,	-1.41438,	-1.45086,	-1.62915,	-1.83870,	-2.03378,	-2.07698,	-2.06725,	-2.21445,	-2.30082,	-2.34007,	-2.28828,	-2.18473,	-2.10746,	-2.06736,	-1.92778,	-1.72238,	-1.49044,	-1.29697,	-1.10660,	-0.78314,	-0.47391,	-0.40645,	-0.24620,	-0.15015,	-0.00194,	0.06680,	0.04917,	-0.15698,	-0.47620,	-0.74503,	-0.96979,	-1.01339,	-0.93939,	-0.95373,	-1.02982,	-1.01447,	-1.04920,	-1.12424,	-1.08880,	-1.06156,	-0.96914,	-0.95848,	-1.06676,	-1.16886,	-1.18378,	-1.20096,	-1.23038,	-1.21277,	-1.14483,	-1.23305,	-1.53142,	-1.76452,	-1.89304,	-2.05182,	-2.00241,	-1.95737,	-1.85641,	-1.66829,	-1.58659,	-1.70495,	-1.85253,	-1.80075,	-1.75397,	-1.77485,	-1.65352,	-1.35465,	-1.20790,	-1.18353,	-1.21984,	-1.25340,	-1.18432,	-1.22714,	-1.33900,	-1.48252,	-1.54944,	-1.55190,	-1.46274,	-1.29064,	-1.11921,	-0.89188,	-0.68625,	-0.70805,	-0.85625,	-0.90376,	-0.84387,	-0.85336,	-0.71635,	-0.51274,	-0.33723,	-0.03096,	0.36770,	0.80251,	1.04093,	1.17663,	1.29315,	1.33639,	1.29685,	1.25269,	1.16712,	1.15075,	1.22736,	1.30006,	1.39289,	1.41826,	1.47643,	1.53988,	1.53326,	1.51847,	1.57689,	1.63505,	1.58863,	1.52690,	1.59775,	1.65210,	1.64113,	1.59726,	1.59252,	1.52885,	1.42049,	1.26858,	1.02099,	0.89054,	0.68780,	0.38809,	0.07022,	-0.02546,	-0.11920,	-0.33742,	-0.52831,	-0.56340,	-0.61337,	-0.75763,	-0.93720,	-1.11808,	-1.11155,	-1.14980,	-1.20794,	-1.15034,	-1.11676,	-1.04291,	-1.01910,	-1.09202,	-1.22305,	-1.30546,	-1.32066,	-1.37141,	-1.47788,	-1.50383,	-1.48799,	-1.53467,	-1.49356,	-1.24564,	-1.22949,	-1.28598,	-1.35370,	-1.42331,	-1.68204,	-1.85991,	-1.91960,	-2.01584,	-2.12324,	-2.18922,	-2.30994,	-2.45787,	-2.44511,	-2.42361,	-2.31156,	-2.24367,	-2.26115,	-2.31945,	-2.54082,	-2.73943,	-2.83891,	-2.82074,	-2.79127,	-2.82895,	-2.83842,	-2.80917,	-2.92631,	-3.03521,	-3.02447,	-2.98067,	-3.00416,	-2.99534,	-3.11040,	-3.11091,	-3.22912,	-3.37733,	-3.59483,	-3.59916,	-3.45891,	-3.40755,	-3.43181,	-3.35650,	-3.22077,	-3.20833,	-3.09337,	-2.89621,	-2.58488,	-2.20746,	-1.96327,	-1.69555,	-1.44768,	-1.17804,	-0.90704,	-0.69411,	-0.57562,	-0.56685,	-0.63993,	-0.69821,	-0.69019,	-0.49647,	-0.23952,	-0.04450,	0.17776,	0.58103,	0.77275,	0.95220,	1.06676,	1.16683,	1.06225,	0.91503,	0.79725,	0.63798,	0.52973,	0.56918,	0.70232,	0.79593,	0.95659,	1.02673,	1.03656,	1.10613,	1.08769,	1.21243,	1.33771,	1.43162,	1.59278,	1.80881,	1.94595,	2.00196,	2.02987,	2.09919,	2.04902,	1.98239,	2.06223,	2.17512,	2.13474,	2.19308,	2.10846,	2.12568,	2.16584,	2.17106,	1.96632,	1.79809,	1.80624,	1.70616,	1.58494,	1.59707,	1.69300,	1.73361,	1.74478,	1.68377,	1.65736,	1.70975,	1.67312,	1.64546,	1.56451,	1.36360,	1.08073,	0.83281,	0.67533,	0.54983,	0.30831,	0.04591,	-0.17486,	-0.41442,	-0.67270,	-0.95068,	-1.31755,	-1.54388,	-1.87543,	-2.23073,	-2.51707
-1.68296,	-1.71886,	-1.78607,	-1.85142,	-1.97360,	-1.96874,	-1.97987,	-1.95367,	-1.87494,	-1.75786,	-1.70675,	-1.50671,	-1.23573,	-1.17640,	-1.34479,	-1.46328,	-1.54462,	-1.43291,	-1.22971,	-1.06248,	-1.12067,	-1.17067,	-1.06917,	-1.02063,	-1.20354,	-1.38423,	-1.45811,	-1.59762,	-1.78282,	-1.95835,	-1.93325,	-1.98382,	-2.20645,	-2.30634,	-2.25890,	-2.11459,	-2.08553,	-2.06118,	-2.00313,	-1.81580,	-1.55662,	-1.28529,	-1.14265,	-1.01758,	-0.74576,	-0.51172,	-0.44912,	-0.28054,	-0.16654,	-0.09094,	-0.06931,	-0.09591,	-0.27649,	-0.50676,	-0.68149,	-0.80559,	-0.85740,	-0.84245,	-0.82100,	-0.81015,	-0.84118,	-0.96531,	-1.00037,	-0.96862,	-0.97708,	-0.90381,	-0.84188,	-0.80883,	-0.95764,	-1.08570,	-1.15284,	-1.14529,	-1.10452,	-1.11177,	-1.34960,	-1.71977,	-1.87520,	-1.95344,	-2.08668,	-2.10188,	-2.14080,	-2.13448,	-1.97440,	-1.83156,	-1.89665,	-1.98724,	-1.91697,	-1.80354,	-1.78355,	-1.68506,	-1.37021,	-1.17460,	-1.16826,	-1.23838,	-1.20631,	-1.15136,	-1.30434,	-1.52810,	-1.68278,	-1.65424,	-1.61540,	-1.48673,	-1.28622,	-1.13003,	-0.95424,	-0.77101,	-0.78461,	-0.89731,	-0.86016,	-0.81917,	-0.88832,	-0.78077,	-0.57657,	-0.39684,	-0.11473,	0.24389,	0.61802,	0.84267,	1.01523,	1.18717,	1.17016,	0.98878,	0.89129,	0.84946,	0.84738,	0.87278,	0.99000,	1.16477,	1.13538,	1.10345,	1.17033,	1.33150,	1.40126,	1.41676,	1.44694,	1.41278,	1.42631,	1.56441,	1.60274,	1.48854,	1.39103,	1.32495,	1.21644,	1.15557,	1.03670,	0.78064,	0.56235,	0.32705,	0.03870,	-0.22922,	-0.26956,	-0.31573,	-0.51572,	-0.72388,	-0.72528,	-0.69136,	-0.79984,	-1.04184,	-1.18527,	-1.09137,	-1.10137,	-1.13295,	-1.10294,	-1.06490,	-1.03629,	-1.07463,	-1.08033,	-1.15779,	-1.22421,	-1.30552,	-1.47915,	-1.67957,	-1.70114,	-1.66516,	-1.75015,	-1.73227,	-1.49160,	-1.43423,	-1.45031,	-1.46604,	-1.55903,	-1.81982,	-1.94512,	-1.94705,	-2.01106,	-2.18951,	-2.28611,	-2.29169,	-2.36913,	-2.42525,	-2.38892,	-2.13159,	-2.05424,	-2.14209,	-2.31110,	-2.51528,	-2.62306,	-2.69931,	-2.60798,	-2.60879,	-2.69924,	-2.77063,	-2.80459,	-2.92512,	-2.99726,	-2.98180,	-3.03495,	-3.08574,	-3.04079,	-3.08324,	-3.07904,	-3.17891,	-3.31115,	-3.44941,	-3.34489,	-3.15111,	-3.08874,	-3.21645,	-3.21824,	-3.03164,	-2.90434,	-2.80533,	-2.69392,	-2.42015,	-2.17894,	-2.00466,	-1.74229,	-1.42437,	-1.06755,	-0.86551,	-0.64955,	-0.51635,	-0.46867,	-0.49543,	-0.56813,	-0.59028,	-0.36158,	-0.03121,	0.17398,	0.36867,	0.66930,	0.77905,	0.84775,	0.89032,	0.92108,	0.78664,	0.70571,	0.68468,	0.55768,	0.33000,	0.27698,	0.51170,	0.71669,	0.81378,	0.76517,	0.82618,	0.94481,	0.98282,	1.11843,	1.21724,	1.34050,	1.42826,	1.67591,	1.89534,	1.98454,	1.97754,	1.93784,	1.83373,	1.82754,	2.02216,	2.14198,	2.07290,	2.10456,	2.05307,	2.04930,	2.04048,	1.96026,	1.69576,	1.57347,	1.67586,	1.73971,	1.63976,	1.54398,	1.62256,	1.71784,	1.75582,	1.70893,	1.77443,	1.82110,	1.68723,	1.56736,	1.46210,	1.34511,	1.06102,	0.82122,	0.68010,	0.56999,	0.34213,	0.06694,	-0.22636,	-0.53253,	-0.76004,	-1.03355,	-1.39493,	-1.59408,	-1.86840,	-2.15210,	-2.35568
-1.84522,	-1.87549,	-1.98932,	-2.02566,	-2.05559,	-2.06380,	-2.11751,	-2.03214,	-1.96646,	-1.83647,	-1.81543,	-1.65993,	-1.46765,	-1.37461,	-1.52180,	-1.58218,	-1.51066,	-1.39850,	-1.18199,	-1.02342,	-0.99509,	-1.05669,	-1.14271,	-1.14709,	-1.23275,	-1.37671,	-1.48609,	-1.54062,	-1.60353,	-1.78754,	-1.84950,	-1.87889,	-2.09303,	-2.17605,	-2.16485,	-2.04364,	-1.97724,	-1.94081,	-1.87915,	-1.65040,	-1.41587,	-1.13970,	-1.04046,	-0.96017,	-0.81818,	-0.62568,	-0.55394,	-0.40785,	-0.22181,	-0.19051,	-0.23424,	-0.25845,	-0.24290,	-0.30631,	-0.55754,	-0.74768,	-0.78665,	-0.77471,	-0.79347,	-0.73601,	-0.69046,	-0.85323,	-0.96633,	-0.86043,	-0.79324,	-0.68065,	-0.64808,	-0.60649,	-0.70732,	-0.90613,	-1.14222,	-1.22275,	-1.26824,	-1.30446,	-1.52180,	-1.80995,	-1.93436,	-1.95134,	-2.02884,	-2.13843,	-2.20366,	-2.28530,	-2.25191,	-2.13106,	-2.06259,	-2.03109,	-2.04918,	-1.98226,	-1.85501,	-1.69695,	-1.48359,	-1.33986,	-1.27249,	-1.34934,	-1.39731,	-1.32453,	-1.43772,	-1.60315,	-1.72691,	-1.71719,	-1.61809,	-1.50460,	-1.44351,	-1.33337,	-1.23672,	-1.09430,	-1.04383,	-1.08270,	-1.00689,	-0.91632,	-0.91539,	-0.82599,	-0.52725,	-0.28395,	-0.08531,	0.17172,	0.49836,	0.72941,	0.75358,	0.80672,	0.81995,	0.66106,	0.50044,	0.46437,	0.59119,	0.64670,	0.69519,	0.93728,	0.99075,	0.94495,	0.93533,	1.00370,	1.10781,	1.14297,	1.12147,	1.16234,	1.24569,	1.41180,	1.49170,	1.31665,	1.12754,	0.99090,	0.89619,	0.80863,	0.72844,	0.51542,	0.24490,	0.02242,	-0.15662,	-0.29866,	-0.48028,	-0.67640,	-0.82813,	-0.94307,	-0.94041,	-0.90348,	-0.87716,	-1.00096,	-1.13442,	-0.99968,	-0.90714,	-0.95074,	-0.99878,	-1.06317,	-1.06482,	-1.11513,	-1.19133,	-1.28080,	-1.32502,	-1.44519,	-1.61344,	-1.82993,	-1.83357,	-1.77750,	-1.79113,	-1.84546,	-1.69139,	-1.63033,	-1.69644,	-1.69792,	-1.72051,	-1.85087,	-2.03426,	-2.12586,	-2.12580,	-2.22271,	-2.31194,	-2.28814,	-2.24566,	-2.27032,	-2.34756,	-2.13288,	-1.97202,	-2.05384,	-2.20921,	-2.39382,	-2.41279,	-2.40301,	-2.37427,	-2.47966,	-2.61645,	-2.78227,	-2.82886,	-2.94905,	-3.02195,	-3.02012,	-2.96390,	-2.97623,	-2.89492,	-2.86838,	-2.96299,	-3.09341,	-3.16522,	-3.14028,	-3.04984,	-2.99560,	-2.94131,	-2.95977,	-2.92523,	-2.78850,	-2.60195,	-2.51290,	-2.55793,	-2.39190,	-2.16149,	-2.03748,	-1.78828,	-1.52184,	-1.12617,	-0.86706,	-0.70618,	-0.60819,	-0.46519,	-0.43574,	-0.42422,	-0.45583,	-0.28742,	-0.01258,	0.28109,	0.48455,	0.71571,	0.80966,	0.74646,	0.72097,	0.74608,	0.71136,	0.65064,	0.54069,	0.37810,	0.17924,	0.08139,	0.22732,	0.47877,	0.63209,	0.56236,	0.65842,	0.91763,	1.02028,	1.15150,	1.12377,	1.19930,	1.29412,	1.47597,	1.63641,	1.74267,	1.71927,	1.74513,	1.69676,	1.73726,	1.89841,	2.03887,	1.97533,	1.97587,	1.98521,	1.92555,	1.84536,	1.75055,	1.64831,	1.62402,	1.61867,	1.64548,	1.59660,	1.49898,	1.50657,	1.59842,	1.70037,	1.64187,	1.66900,	1.81256,	1.70985,	1.58384,	1.43825,	1.37237,	1.20871,	0.96666,	0.68415,	0.47973,	0.18531,	-0.06345,	-0.33907,	-0.65349,	-0.92232,	-1.12960,	-1.38583,	-1.54838,	-1.72434,	-1.95590,	-2.12576
-2.07504,	-2.03900,	-2.15930,	-2.18602,	-2.15342,	-2.11799,	-2.17394,	-2.01611,	-1.95067,	-1.83235,	-1.81577,	-1.68434,	-1.56263,	-1.55082,	-1.67040,	-1.65545,	-1.50070,	-1.26201,	-1.04675,	-1.02849,	-0.98374,	-0.99388,	-1.13825,	-1.14085,	-1.18232,	-1.26032,	-1.32018,	-1.43861,	-1.47829,	-1.54718,	-1.64527,	-1.79763,	-2.03346,	-2.11617,	-2.17237,	-2.10955,	-2.02583,	-1.90467,	-1.78584,	-1.47885,	-1.27084,	-1.10151,	-1.07541,	-0.98361,	-0.87091,	-0.77589,	-0.74250,	-0.61973,	-0.40009,	-0.22786,	-0.22156,	-0.33430,	-0.26507,	-0.21172,	-0.46131,	-0.64084,	-0.69506,	-0.68229,	-0.70880,	-0.75526,	-0.68932,	-0.71098,	-0.79894,	-0.75977,	-0.69135,	-0.53979,	-0.52317,	-0.52649,	-0.63171,	-0.82175,	-1.12266,	-1.24634,	-1.35649,	-1.44643,	-1.63561,	-1.81790,	-1.90609,	-1.99867,	-2.14768,	-2.32482,	-2.40665,	-2.41737,	-2.38424,	-2.39760,	-2.36046,	-2.24849,	-2.21563,	-2.08209,	-1.89169,	-1.70289,	-1.53692,	-1.53895,	-1.52551,	-1.52549,	-1.57406,	-1.59676,	-1.73441,	-1.79752,	-1.84707,	-1.85398,	-1.77162,	-1.70145,	-1.70976,	-1.56230,	-1.44147,	-1.32536,	-1.26483,	-1.24898,	-1.11257,	-1.02328,	-1.03464,	-0.93752,	-0.58965,	-0.23096,	0.02568,	0.14499,	0.30807,	0.50814,	0.48265,	0.52538,	0.61535,	0.50927,	0.35327,	0.24129,	0.32881,	0.48488,	0.59432,	0.76733,	0.76545,	0.74422,	0.70778,	0.66727,	0.72688,	0.79360,	0.82104,	0.97510,	1.13143,	1.26187,	1.29169,	1.09051,	0.90125,	0.69570,	0.50651,	0.38360,	0.31001,	0.20510,	0.11468,	-0.08933,	-0.31166,	-0.40184,	-0.61714,	-0.84123,	-0.92706,	-1.01318,	-1.01537,	-1.04914,	-1.07291,	-1.02649,	-0.99603,	-0.90109,	-0.91344,	-1.02304,	-1.11911,	-1.23234,	-1.25314,	-1.28836,	-1.37094,	-1.44702,	-1.41840,	-1.53909,	-1.72081,	-1.92055,	-1.87230,	-1.83871,	-1.92715,	-2.04263,	-1.98708,	-1.92685,	-1.89089,	-1.89489,	-1.95517,	-2.00579,	-2.16060,	-2.24029,	-2.14534,	-2.17896,	-2.22448,	-2.24175,	-2.28997,	-2.23636,	-2.22792,	-2.10736,	-2.05366,	-2.11009,	-2.18072,	-2.31370,	-2.31535,	-2.28532,	-2.28509,	-2.42632,	-2.51497,	-2.72380,	-2.83245,	-2.96825,	-3.00850,	-2.99365,	-2.91473,	-2.86632,	-2.76842,	-2.70470,	-2.70647,	-2.84416,	-3.00104,	-2.95370,	-2.87254,	-2.86410,	-2.74727,	-2.65903,	-2.54409,	-2.46651,	-2.47327,	-2.45505,	-2.45723,	-2.34680,	-2.24230,	-2.14956,	-1.90004,	-1.67155,	-1.27440,	-0.96394,	-0.77467,	-0.65890,	-0.39603,	-0.33237,	-0.32080,	-0.37483,	-0.24277,	-0.02521,	0.19570,	0.41269,	0.65543,	0.76681,	0.79754,	0.77799,	0.69504,	0.67507,	0.64253,	0.49088,	0.35894,	0.19865,	0.09995,	0.14469,	0.22539,	0.39711,	0.51109,	0.67265,	0.85172,	0.92501,	1.03413,	0.94244,	0.98229,	1.07501,	1.24266,	1.37133,	1.54585,	1.56791,	1.66365,	1.67888,	1.77326,	1.90664,	1.94512,	1.86653,	1.85843,	1.85809,	1.87505,	1.80910,	1.63022,	1.60769,	1.67872,	1.63542,	1.63655,	1.55737,	1.47673,	1.47147,	1.42549,	1.51057,	1.56915,	1.61481,	1.69819,	1.60135,	1.51120,	1.37400,	1.32434,	1.20490,	0.99113,	0.63607,	0.40029,	0.07221,	-0.20070,	-0.43878,	-0.67022,	-0.91351,	-1.15424,	-1.37210,	-1.48848,	-1.61116,	-1.70545,	-1.80233
-2.27155,	-2.13451,	-2.20512,	-2.21490,	-2.28587,	-2.30521,	-2.31873,	-2.16020,	-2.05611,	-1.93726,	-1.77531,	-1.61914,	-1.56338,	-1.66322,	-1.68874,	-1.65871,	-1.49129,	-1.23813,	-1.06776,	-1.07498,	-1.12411,	-1.10655,	-1.17204,	-1.16040,	-1.15597,	-1.27419,	-1.27237,	-1.25044,	-1.24644,	-1.34437,	-1.44721,	-1.66926,	-1.88827,	-1.96112,	-2.09548,	-2.05346,	-2.00520,	-1.87862,	-1.66650,	-1.32247,	-1.09870,	-1.05920,	-1.02899,	-0.94286,	-0.89238,	-0.91821,	-0.84245,	-0.75750,	-0.60435,	-0.41200,	-0.36768,	-0.38730,	-0.33845,	-0.26218,	-0.38796,	-0.51690,	-0.56509,	-0.63528,	-0.69898,	-0.67311,	-0.52821,	-0.51681,	-0.53933,	-0.57380,	-0.60166,	-0.45208,	-0.44942,	-0.48230,	-0.65617,	-0.89402,	-1.12013,	-1.21890,	-1.34239,	-1.53057,	-1.67077,	-1.76460,	-1.86843,	-2.06497,	-2.24582,	-2.48994,	-2.65094,	-2.65194,	-2.64190,	-2.64149,	-2.68177,	-2.59770,	-2.38177,	-2.12883,	-1.88237,	-1.76951,	-1.73430,	-1.70770,	-1.64238,	-1.70357,	-1.79928,	-1.88019,	-2.03929,	-2.00995,	-1.99504,	-1.96355,	-1.93843,	-2.00129,	-2.01107,	-1.82384,	-1.65184,	-1.56864,	-1.45581,	-1.34940,	-1.22993,	-1.16726,	-1.10429,	-0.92435,	-0.61174,	-0.23741,	-0.00152,	0.09517,	0.08607,	0.11305,	0.13735,	0.23244,	0.41859,	0.35176,	0.14789,	0.05449,	0.13655,	0.25821,	0.38258,	0.50834,	0.44157,	0.48323,	0.51220,	0.49105,	0.46933,	0.42445,	0.49283,	0.73980,	0.96341,	1.04681,	1.01192,	0.81216,	0.57667,	0.32345,	0.10965,	0.02497,	-0.12630,	-0.18071,	-0.15319,	-0.22906,	-0.45832,	-0.67785,	-0.85895,	-1.00521,	-0.99564,	-1.08557,	-1.21886,	-1.20953,	-1.11897,	-1.00090,	-0.89691,	-0.78938,	-0.92510,	-1.09730,	-1.22082,	-1.32498,	-1.36861,	-1.48613,	-1.55643,	-1.59462,	-1.53335,	-1.64983,	-1.82604,	-1.93308,	-1.91628,	-1.94156,	-2.08687,	-2.16928,	-2.27435,	-2.26023,	-2.20746,	-2.13147,	-2.11480,	-2.20281,	-2.25999,	-2.29249,	-2.18785,	-2.19008,	-2.32410,	-2.34185,	-2.30103,	-2.18758,	-2.09318,	-1.92674,	-1.98996,	-2.05403,	-2.07282,	-2.13827,	-2.12486,	-2.19208,	-2.27152,	-2.41528,	-2.45329,	-2.63901,	-2.80323,	-2.88234,	-2.95714,	-2.93779,	-2.82049,	-2.61398,	-2.57097,	-2.55567,	-2.57045,	-2.63137,	-2.71044,	-2.79669,	-2.74674,	-2.67860,	-2.49256,	-2.32263,	-2.28417,	-2.23986,	-2.26218,	-2.34539,	-2.41130,	-2.29126,	-2.30862,	-2.25482,	-2.00596,	-1.79431,	-1.40716,	-1.15303,	-0.95817,	-0.75005,	-0.39742,	-0.26684,	-0.26977,	-0.24521,	-0.17147,	-0.01287,	0.13037,	0.46610,	0.70227,	0.79501,	0.81077,	0.73966,	0.61677,	0.46876,	0.41303,	0.30723,	0.23951,	0.18076,	0.06430,	0.08703,	0.18114,	0.33900,	0.47056,	0.72804,	0.83242,	0.83872,	0.87755,	0.73558,	0.80118,	0.83721,	0.93779,	1.09343,	1.30652,	1.42237,	1.56752,	1.72217,	1.83208,	1.87372,	1.78294,	1.82020,	1.82262,	1.73212,	1.69363,	1.64316,	1.55423,	1.49369,	1.56686,	1.60629,	1.61595,	1.53542,	1.38742,	1.36376,	1.37207,	1.46587,	1.49831,	1.57928,	1.59400,	1.48145,	1.44896,	1.36630,	1.38538,	1.23096,	0.96262,	0.61515,	0.34310,	0.02111,	-0.31415,	-0.45445,	-0.58277,	-0.81434,	-1.11326,	-1.27481,	-1.39459,	-1.54195,	-1.61655,	-1.69339
-2.35021,	-2.23717,	-2.26076,	-2.25964,	-2.39806,	-2.41954,	-2.43706,	-2.46496,	-2.35840,	-2.15900,	-1.86095,	-1.64825,	-1.61738,	-1.67675,	-1.67165,	-1.60869,	-1.42774,	-1.20774,	-1.05814,	-1.00829,	-1.04427,	-0.99496,	-1.00517,	-1.10743,	-1.10197,	-1.11827,	-1.10870,	-1.15090,	-1.16309,	-1.33256,	-1.44945,	-1.49927,	-1.62447,	-1.72811,	-1.92006,	-1.89332,	-1.83723,	-1.70296,	-1.52075,	-1.32805,	-1.11554,	-1.04991,	-0.96990,	-0.90033,	-0.88397,	-0.87484,	-0.76666,	-0.67099,	-0.57887,	-0.46533,	-0.41834,	-0.34338,	-0.29568,	-0.25420,	-0.33328,	-0.52343,	-0.54646,	-0.48815,	-0.51078,	-0.55433,	-0.45569,	-0.47447,	-0.46773,	-0.40249,	-0.46126,	-0.40093,	-0.45086,	-0.55272,	-0.76126,	-0.94606,	-1.06568,	-1.23642,	-1.44109,	-1.68140,	-1.84462,	-1.95963,	-2.08287,	-2.23672,	-2.38084,	-2.59438,	-2.73886,	-2.75581,	-2.76520,	-2.73237,	-2.77905,	-2.72510,	-2.49271,	-2.33783,	-2.14977,	-1.99662,	-1.95428,	-1.93528,	-1.84993,	-1.95389,	-2.10727,	-2.08122,	-2.13894,	-2.15447,	-2.19716,	-2.14720,	-2.10089,	-2.10934,	-2.04360,	-1.93996,	-1.82322,	-1.73271,	-1.58830,	-1.46504,	-1.39934,	-1.30276,	-1.11771,	-0.84754,	-0.53270,	-0.23359,	-0.06365,	0.04968,	0.03938,	0.01547,	0.04202,	0.04253,	0.14151,	0.17559,	0.05915,	-0.09774,	-0.13773,	-0.09523,	-0.02864,	0.13190,	0.16646,	0.24863,	0.34206,	0.37465,	0.28965,	0.18037,	0.22711,	0.37268,	0.50937,	0.58265,	0.53933,	0.36050,	0.13354,	-0.04126,	-0.13998,	-0.17219,	-0.29476,	-0.35755,	-0.36124,	-0.39164,	-0.57407,	-0.84882,	-1.00779,	-1.11655,	-1.11628,	-1.12520,	-1.21697,	-1.21506,	-1.13966,	-1.07431,	-1.05162,	-0.88838,	-0.91884,	-1.09406,	-1.24631,	-1.34262,	-1.39223,	-1.51601,	-1.54318,	-1.63469,	-1.71943,	-1.84093,	-1.97447,	-2.04471,	-2.10676,	-2.18797,	-2.28556,	-2.32415,	-2.39208,	-2.38666,	-2.37422,	-2.28609,	-2.21332,	-2.28199,	-2.27793,	-2.34097,	-2.39408,	-2.35401,	-2.42222,	-2.48540,	-2.45397,	-2.26782,	-2.08127,	-1.79266,	-1.75663,	-1.86192,	-1.96620,	-2.03866,	-2.02627,	-2.11750,	-2.18205,	-2.33458,	-2.45164,	-2.57922,	-2.71002,	-2.76710,	-2.87875,	-2.86878,	-2.69462,	-2.45012,	-2.37611,	-2.39808,	-2.43437,	-2.38358,	-2.31422,	-2.41837,	-2.40860,	-2.33245,	-2.25874,	-2.11918,	-2.07165,	-2.07402,	-2.17514,	-2.27768,	-2.39277,	-2.25565,	-2.16247,	-2.12198,	-1.93489,	-1.74624,	-1.41467,	-1.20216,	-0.95391,	-0.72726,	-0.52323,	-0.41368,	-0.39344,	-0.29863,	-0.20447,	-0.02734,	0.18884,	0.55103,	0.80825,	0.90485,	0.87792,	0.75327,	0.61555,	0.42430,	0.31973,	0.19149,	0.03956,	0.05705,	0.12201,	0.16303,	0.13822,	0.22638,	0.27126,	0.54430,	0.78404,	0.78696,	0.74090,	0.59530,	0.69076,	0.73457,	0.86163,	1.01363,	1.09355,	1.19887,	1.34594,	1.54249,	1.64487,	1.63890,	1.62392,	1.80041,	1.91850,	1.82570,	1.72024,	1.69438,	1.69228,	1.57849,	1.58488,	1.64612,	1.56248,	1.49355,	1.44744,	1.43633,	1.37750,	1.43449,	1.40869,	1.47311,	1.56963,	1.49077,	1.45715,	1.40272,	1.42311,	1.23171,	0.98783,	0.69803,	0.33961,	0.00123,	-0.34973,	-0.50259,	-0.64383,	-0.86131,	-1.07794,	-1.20104,	-1.30772,	-1.43098,	-1.54684,	-1.63211
-2.48827,	-2.48159,	-2.39675,	-2.42148,	-2.48142,	-2.46944,	-2.44775,	-2.56642,	-2.40108,	-2.12328,	-1.88805,	-1.70464,	-1.68512,	-1.72099,	-1.76711,	-1.70177,	-1.50138,	-1.26248,	-1.01587,	-0.94758,	-0.90380,	-0.77751,	-0.80098,	-0.82847,	-0.83017,	-0.83034,	-0.87070,	-1.01280,	-1.15532,	-1.26734,	-1.33479,	-1.34953,	-1.46410,	-1.62328,	-1.71627,	-1.74856,	-1.68129,	-1.58974,	-1.44242,	-1.33910,	-1.07231,	-0.86835,	-0.81821,	-0.77056,	-0.72159,	-0.69236,	-0.65671,	-0.60569,	-0.55294,	-0.48996,	-0.40901,	-0.38991,	-0.36457,	-0.29344,	-0.39808,	-0.48457,	-0.42460,	-0.29200,	-0.27128,	-0.36774,	-0.47373,	-0.50174,	-0.43640,	-0.34700,	-0.39279,	-0.43016,	-0.43531,	-0.62236,	-0.85739,	-1.02422,	-1.10373,	-1.36762,	-1.61857,	-1.79649,	-2.06616,	-2.25608,	-2.33720,	-2.44470,	-2.58093,	-2.76023,	-2.87429,	-2.91321,	-2.88452,	-2.89856,	-2.95088,	-2.83762,	-2.72187,	-2.60804,	-2.43029,	-2.28545,	-2.18557,	-2.12727,	-2.13112,	-2.20562,	-2.26030,	-2.21000,	-2.24996,	-2.38970,	-2.42139,	-2.35827,	-2.27179,	-2.15654,	-1.98658,	-1.91008,	-1.80658,	-1.62104,	-1.55044,	-1.50874,	-1.43007,	-1.31644,	-1.13829,	-0.88886,	-0.59050,	-0.36857,	-0.19150,	-0.09698,	-0.08525,	0.00544,	0.00795,	-0.02346,	0.02778,	0.02836,	-0.03366,	-0.16574,	-0.31612,	-0.33555,	-0.21492,	-0.08455,	-0.03910,	-0.00323,	0.13718,	0.15904,	-0.03104,	-0.15196,	-0.13821,	-0.06402,	0.02197,	0.19194,	0.14356,	-0.03193,	-0.17383,	-0.27659,	-0.34242,	-0.38967,	-0.46382,	-0.55237,	-0.59539,	-0.66988,	-0.87167,	-1.03098,	-1.13545,	-1.17578,	-1.08393,	-1.07411,	-1.10127,	-1.08289,	-1.11800,	-1.19343,	-1.15224,	-1.01103,	-1.01716,	-1.19745,	-1.31772,	-1.36879,	-1.48224,	-1.56217,	-1.56334,	-1.65162,	-1.80128,	-1.82530,	-1.96352,	-2.12149,	-2.22724,	-2.37077,	-2.50917,	-2.58855,	-2.58336,	-2.56864,	-2.54304,	-2.49174,	-2.52411,	-2.50070,	-2.43523,	-2.45640,	-2.41274,	-2.38369,	-2.41005,	-2.46594,	-2.48237,	-2.32972,	-1.99554,	-1.70350,	-1.67641,	-1.82738,	-1.98456,	-2.00811,	-2.07337,	-2.10907,	-2.09703,	-2.15803,	-2.30060,	-2.30131,	-2.39238,	-2.52656,	-2.62837,	-2.65207,	-2.57992,	-2.46420,	-2.38258,	-2.39478,	-2.35558,	-2.19618,	-2.12100,	-2.10733,	-2.04511,	-1.99269,	-1.88361,	-1.86800,	-1.87882,	-1.90293,	-2.05060,	-2.20533,	-2.20296,	-2.06608,	-1.97276,	-1.95776,	-1.82043,	-1.55650,	-1.33940,	-1.12664,	-0.88090,	-0.65055,	-0.58610,	-0.46529,	-0.41486,	-0.36830,	-0.20265,	0.04108,	0.27807,	0.51977,	0.70506,	0.78515,	0.78141,	0.74019,	0.57490,	0.44866,	0.39072,	0.21664,	0.13535,	0.13288,	0.19653,	0.17887,	0.04926,	-0.00475,	0.08783,	0.37609,	0.63121,	0.64608,	0.59038,	0.58665,	0.62081,	0.68747,	0.82525,	0.99879,	0.99959,	1.10612,	1.23660,	1.31557,	1.41193,	1.46320,	1.53153,	1.71239,	1.87363,	1.83840,	1.76710,	1.82411,	1.77208,	1.62829,	1.65127,	1.67186,	1.67509,	1.63710,	1.60289,	1.57991,	1.47473,	1.39843,	1.41367,	1.50837,	1.58065,	1.49307,	1.40134,	1.43617,	1.37351,	1.16293,	0.94629,	0.76064,	0.42974,	0.15395,	-0.13138,	-0.46389,	-0.74388,	-0.94235,	-1.10506,	-1.23505,	-1.33197,	-1.41494,	-1.52190,	-1.52735
-2.72841,	-2.70780,	-2.55816,	-2.47499,	-2.40979,	-2.41118,	-2.35409,	-2.36830,	-2.16320,	-1.93717,	-1.77354,	-1.61486,	-1.61888,	-1.65383,	-1.69426,	-1.62053,	-1.41034,	-1.21854,	-0.92380,	-0.76005,	-0.66988,	-0.58187,	-0.61350,	-0.60654,	-0.60479,	-0.63859,	-0.73362,	-0.79235,	-0.97039,	-1.18041,	-1.25353,	-1.31878,	-1.46987,	-1.57340,	-1.58037,	-1.57280,	-1.50673,	-1.51401,	-1.39942,	-1.23421,	-0.93007,	-0.72309,	-0.67890,	-0.56837,	-0.46409,	-0.42791,	-0.43167,	-0.44279,	-0.43425,	-0.45935,	-0.41701,	-0.40326,	-0.39308,	-0.36633,	-0.48092,	-0.51194,	-0.41006,	-0.27886,	-0.24754,	-0.23603,	-0.41020,	-0.59083,	-0.57088,	-0.48208,	-0.48011,	-0.46907,	-0.43218,	-0.58631,	-0.80812,	-1.05939,	-1.20559,	-1.48278,	-1.74322,	-1.94549,	-2.25153,	-2.39503,	-2.41585,	-2.51875,	-2.64594,	-2.81688,	-2.95027,	-3.06993,	-3.07370,	-3.07165,	-3.10304,	-3.03009,	-3.03283,	-2.97677,	-2.81459,	-2.67916,	-2.54071,	-2.33944,	-2.30978,	-2.45529,	-2.50204,	-2.46049,	-2.51230,	-2.61963,	-2.57893,	-2.44230,	-2.27867,	-2.13564,	-1.94417,	-1.79868,	-1.64539,	-1.46810,	-1.46947,	-1.44363,	-1.32996,	-1.23084,	-1.08354,	-0.87292,	-0.61317,	-0.46336,	-0.33047,	-0.21454,	-0.15609,	-0.05264,	-0.08461,	-0.13759,	-0.13611,	-0.18103,	-0.24532,	-0.23089,	-0.27498,	-0.40951,	-0.37388,	-0.27421,	-0.25376,	-0.20442,	-0.03534,	-0.04029,	-0.24491,	-0.40709,	-0.45430,	-0.35207,	-0.22604,	-0.06845,	-0.13876,	-0.25332,	-0.30016,	-0.37035,	-0.41402,	-0.45624,	-0.52138,	-0.65900,	-0.81087,	-0.90418,	-1.05276,	-1.14900,	-1.23122,	-1.23550,	-1.12420,	-1.10795,	-1.11955,	-1.03633,	-1.01258,	-1.22295,	-1.30328,	-1.21827,	-1.26557,	-1.41344,	-1.45895,	-1.48122,	-1.56884,	-1.64847,	-1.69632,	-1.73241,	-1.79794,	-1.78525,	-1.95761,	-2.12807,	-2.20655,	-2.39411,	-2.58778,	-2.71107,	-2.72606,	-2.75556,	-2.80099,	-2.77934,	-2.82288,	-2.77567,	-2.71347,	-2.64311,	-2.49317,	-2.45370,	-2.48271,	-2.46167,	-2.33998,	-2.25093,	-2.02576,	-1.80146,	-1.81696,	-1.92958,	-1.98992,	-1.94871,	-1.97727,	-1.99431,	-1.98918,	-1.95598,	-1.99724,	-1.94378,	-2.04424,	-2.17972,	-2.22226,	-2.30008,	-2.36326,	-2.35474,	-2.31046,	-2.31150,	-2.27290,	-2.06648,	-1.93226,	-1.85101,	-1.79768,	-1.75917,	-1.65523,	-1.69410,	-1.77433,	-1.79764,	-1.80814,	-1.98911,	-2.07086,	-1.97282,	-1.91999,	-1.88286,	-1.66832,	-1.35211,	-1.11580,	-0.91889,	-0.77851,	-0.57092,	-0.48509,	-0.37983,	-0.38991,	-0.36994,	-0.12478,	0.14930,	0.37011,	0.53115,	0.62367,	0.67165,	0.63964,	0.70672,	0.67318,	0.60939,	0.53869,	0.37249,	0.30422,	0.24840,	0.17936,	0.05291,	0.01150,	-0.07555,	-0.06697,	0.20895,	0.43302,	0.47746,	0.54817,	0.64866,	0.71029,	0.78330,	0.85395,	1.02077,	1.08529,	1.17435,	1.19442,	1.20867,	1.37830,	1.51162,	1.61979,	1.78353,	1.92203,	1.91706,	1.83688,	1.91830,	1.91447,	1.79539,	1.77564,	1.76023,	1.77900,	1.73796,	1.64120,	1.56579,	1.57465,	1.48605,	1.39288,	1.44601,	1.46207,	1.35636,	1.31271,	1.40214,	1.36575,	1.18405,	0.92773,	0.78379,	0.58754,	0.38862,	0.07789,	-0.37803,	-0.71385,	-0.90857,	-1.06673,	-1.15881,	-1.23407,	-1.31255,	-1.43808,	-1.39850
-2.87158,	-2.83760,	-2.68607,	-2.56794,	-2.33964,	-2.23397,	-2.25266,	-2.13775,	-1.91982,	-1.75791,	-1.65872,	-1.51339,	-1.52677,	-1.54014,	-1.52158,	-1.42050,	-1.17486,	-0.96893,	-0.77188,	-0.64375,	-0.50337,	-0.47687,	-0.46944,	-0.41478,	-0.40459,	-0.37394,	-0.55264,	-0.65845,	-0.83470,	-1.01948,	-1.16362,	-1.27915,	-1.43355,	-1.54835,	-1.53804,	-1.55983,	-1.45362,	-1.32808,	-1.30388,	-1.15875,	-0.92877,	-0.74651,	-0.66146,	-0.50929,	-0.40856,	-0.33391,	-0.31443,	-0.37950,	-0.36180,	-0.36323,	-0.42730,	-0.50969,	-0.47066,	-0.45376,	-0.54495,	-0.53210,	-0.44684,	-0.27054,	-0.25623,	-0.27599,	-0.46418,	-0.65550,	-0.75743,	-0.68201,	-0.56894,	-0.54737,	-0.54292,	-0.69651,	-0.85428,	-1.04521,	-1.35418,	-1.64535,	-1.87146,	-2.08077,	-2.33038,	-2.41970,	-2.48874,	-2.65857,	-2.82507,	-3.04288,	-3.16032,	-3.22896,	-3.24684,	-3.28270,	-3.28256,	-3.28787,	-3.40763,	-3.38300,	-3.22445,	-2.96154,	-2.75377,	-2.59118,	-2.59613,	-2.72693,	-2.80975,	-2.79095,	-2.72956,	-2.71143,	-2.63241,	-2.55484,	-2.37016,	-2.06138,	-1.89513,	-1.77323,	-1.59373,	-1.42192,	-1.42540,	-1.42233,	-1.36135,	-1.32715,	-1.20232,	-1.03999,	-0.75090,	-0.49991,	-0.38258,	-0.32774,	-0.26561,	-0.21012,	-0.29521,	-0.33368,	-0.32615,	-0.29185,	-0.31924,	-0.30055,	-0.31796,	-0.48040,	-0.55406,	-0.48941,	-0.36751,	-0.31917,	-0.21610,	-0.26561,	-0.40778,	-0.41989,	-0.48498,	-0.44589,	-0.33790,	-0.28680,	-0.40180,	-0.50278,	-0.54646,	-0.61947,	-0.56531,	-0.56946,	-0.59907,	-0.70221,	-0.93385,	-1.10764,	-1.19373,	-1.19928,	-1.27904,	-1.28487,	-1.21641,	-1.15521,	-1.08699,	-1.04925,	-1.02797,	-1.19382,	-1.36851,	-1.46446,	-1.49862,	-1.60071,	-1.66196,	-1.77135,	-1.86611,	-1.79234,	-1.84020,	-1.94758,	-1.95170,	-1.96178,	-2.11660,	-2.26942,	-2.33550,	-2.54473,	-2.73156,	-2.89078,	-2.96451,	-3.00520,	-3.08574,	-3.14569,	-3.15558,	-3.05205,	-3.02560,	-2.86766,	-2.65507,	-2.57396,	-2.51558,	-2.46437,	-2.31403,	-2.25412,	-2.12609,	-1.99438,	-1.88181,	-1.86612,	-1.85297,	-1.82253,	-1.88636,	-1.82332,	-1.81400,	-1.85262,	-1.81893,	-1.74997,	-1.75817,	-1.84234,	-1.89129,	-2.09593,	-2.26008,	-2.30678,	-2.26335,	-2.14910,	-2.04795,	-1.92847,	-1.82032,	-1.68632,	-1.66504,	-1.62122,	-1.49351,	-1.45162,	-1.46597,	-1.59804,	-1.64909,	-1.80635,	-1.91970,	-1.98125,	-1.88217,	-1.72687,	-1.49571,	-1.22622,	-1.04322,	-0.79345,	-0.64597,	-0.58297,	-0.46312,	-0.37919,	-0.39320,	-0.38240,	-0.17365,	0.01418,	0.21943,	0.37293,	0.45754,	0.56524,	0.60209,	0.69785,	0.72499,	0.72840,	0.63169,	0.53554,	0.47546,	0.35531,	0.26997,	0.06795,	0.03077,	-0.01778,	0.02026,	0.16959,	0.37471,	0.48073,	0.56553,	0.65656,	0.66981,	0.83540,	1.05281,	1.12123,	1.19538,	1.19286,	1.13296,	1.14974,	1.37802,	1.54865,	1.67440,	1.80194,	1.87899,	1.92599,	1.94664,	1.99286,	2.01869,	2.03471,	1.95499,	1.85648,	1.84120,	1.80303,	1.75526,	1.58520,	1.57015,	1.51877,	1.41557,	1.31966,	1.28042,	1.22718,	1.17918,	1.22914,	1.16885,	1.10182,	1.00762,	0.79856,	0.61905,	0.42256,	0.10192,	-0.35723,	-0.68576,	-0.93531,	-1.11905,	-1.15965,	-1.23630,	-1.29158,	-1.30758,	-1.22247
-2.76241,	-2.76099,	-2.60765,	-2.45026,	-2.21723,	-2.20447,	-2.26714,	-2.09952,	-1.86564,	-1.68143,	-1.62892,	-1.47782,	-1.41631,	-1.32962,	-1.25387,	-1.19731,	-0.98377,	-0.83915,	-0.72397,	-0.65429,	-0.50519,	-0.37500,	-0.33126,	-0.26759,	-0.28027,	-0.33875,	-0.49619,	-0.50459,	-0.63983,	-0.70348,	-0.86417,	-1.05153,	-1.26195,	-1.50516,	-1.51965,	-1.51332,	-1.40244,	-1.30852,	-1.35017,	-1.28808,	-1.13805,	-0.88812,	-0.75181,	-0.61141,	-0.51110,	-0.34141,	-0.28902,	-0.44677,	-0.44530,	-0.45535,	-0.58592,	-0.75638,	-0.72744,	-0.55678,	-0.54556,	-0.46710,	-0.38168,	-0.31040,	-0.34686,	-0.33412,	-0.46418,	-0.54486,	-0.66989,	-0.65116,	-0.57834,	-0.68330,	-0.74894,	-0.85789,	-0.98766,	-1.29399,	-1.73233,	-1.99888,	-2.14340,	-2.25288,	-2.41602,	-2.49874,	-2.61886,	-2.78696,	-2.97391,	-3.27918,	-3.43369,	-3.52730,	-3.59317,	-3.69732,	-3.72674,	-3.65859,	-3.66925,	-3.55618,	-3.37688,	-3.15116,	-2.99202,	-2.86783,	-2.90465,	-2.97427,	-3.00612,	-2.97576,	-2.84977,	-2.78686,	-2.71512,	-2.65755,	-2.46926,	-2.16648,	-2.04507,	-1.96011,	-1.78842,	-1.55101,	-1.52231,	-1.56989,	-1.53788,	-1.46560,	-1.31902,	-1.23965,	-0.98822,	-0.70033,	-0.59896,	-0.57317,	-0.54051,	-0.43892,	-0.44205,	-0.41806,	-0.32692,	-0.29677,	-0.38231,	-0.38078,	-0.43504,	-0.58364,	-0.63978,	-0.57448,	-0.42570,	-0.46979,	-0.46666,	-0.44381,	-0.45241,	-0.44279,	-0.56221,	-0.57479,	-0.52547,	-0.50176,	-0.61624,	-0.74577,	-0.81546,	-0.85841,	-0.72152,	-0.75555,	-0.82701,	-0.91806,	-1.12341,	-1.25864,	-1.32754,	-1.22848,	-1.20754,	-1.24553,	-1.21809,	-1.22785,	-1.22517,	-1.18936,	-1.13971,	-1.20251,	-1.33531,	-1.55388,	-1.62929,	-1.76427,	-1.92417,	-2.10573,	-2.20548,	-2.13727,	-2.28951,	-2.44879,	-2.42151,	-2.36133,	-2.42220,	-2.57277,	-2.63819,	-2.79124,	-2.89257,	-3.07508,	-3.24648,	-3.33667,	-3.47605,	-3.53531,	-3.48648,	-3.28589,	-3.12948,	-2.95638,	-2.75255,	-2.71505,	-2.72949,	-2.63916,	-2.46600,	-2.42064,	-2.23358,	-2.05136,	-1.80404,	-1.71696,	-1.70875,	-1.66677,	-1.71429,	-1.66524,	-1.77210,	-1.85147,	-1.80250,	-1.69204,	-1.58548,	-1.67072,	-1.76573,	-1.99075,	-2.04656,	-2.05859,	-2.07327,	-1.93246,	-1.88314,	-1.85613,	-1.82336,	-1.67897,	-1.52338,	-1.45352,	-1.27109,	-1.16691,	-1.27031,	-1.48620,	-1.55779,	-1.68002,	-1.71107,	-1.86147,	-1.76706,	-1.59540,	-1.47454,	-1.26070,	-1.05162,	-0.79031,	-0.76713,	-0.80255,	-0.69338,	-0.57749,	-0.48843,	-0.46531,	-0.31129,	-0.16460,	0.10950,	0.31664,	0.40227,	0.53940,	0.55911,	0.61943,	0.60030,	0.61983,	0.66826,	0.65689,	0.61381,	0.42437,	0.21235,	0.03640,	0.07980,	0.08350,	0.25495,	0.35722,	0.52961,	0.62989,	0.61524,	0.68269,	0.71860,	0.91247,	1.06567,	1.04302,	1.07486,	1.05925,	1.13946,	1.22686,	1.45403,	1.63504,	1.79139,	1.86572,	1.81022,	1.81676,	1.83512,	1.85806,	1.90894,	2.02437,	2.05466,	1.93571,	1.91360,	1.89345,	1.75007,	1.48484,	1.47130,	1.44298,	1.41188,	1.26875,	1.21279,	1.16960,	1.00162,	0.97088,	0.94756,	0.97499,	0.87954,	0.64143,	0.45981,	0.27723,	0.06810,	-0.29568,	-0.58095,	-0.84581,	-0.99881,	-1.05181,	-1.24210,	-1.34375,	-1.34280,	-1.23213
-2.64060,	-2.58505,	-2.50229,	-2.24494,	-2.10037,	-2.19231,	-2.14163,	-1.97030,	-1.82972,	-1.63377,	-1.54560,	-1.47489,	-1.36363,	-1.22029,	-1.18962,	-1.08392,	-0.92071,	-0.86734,	-0.67226,	-0.48256,	-0.37993,	-0.28805,	-0.25034,	-0.27262,	-0.37785,	-0.45181,	-0.50962,	-0.37069,	-0.40276,	-0.48202,	-0.68045,	-0.92344,	-1.14407,	-1.35607,	-1.46304,	-1.36855,	-1.30600,	-1.37447,	-1.38151,	-1.33027,	-1.27838,	-0.99489,	-0.77095,	-0.70036,	-0.59492,	-0.36630,	-0.37080,	-0.49154,	-0.49135,	-0.56484,	-0.65286,	-0.75594,	-0.80102,	-0.66828,	-0.57509,	-0.45064,	-0.37381,	-0.30314,	-0.33002,	-0.27886,	-0.32916,	-0.42805,	-0.60392,	-0.67016,	-0.68527,	-0.79055,	-0.97586,	-1.05361,	-1.21324,	-1.68836,	-2.07171,	-2.26024,	-2.45477,	-2.56211,	-2.64233,	-2.77317,	-2.91293,	-3.00108,	-3.19340,	-3.42401,	-3.56900,	-3.78790,	-3.90238,	-3.98639,	-4.07053,	-4.03077,	-3.88958,	-3.67118,	-3.55609,	-3.39151,	-3.25750,	-3.12912,	-3.08903,	-3.14878,	-3.19833,	-3.17028,	-3.04518,	-2.91953,	-2.92903,	-2.84200,	-2.60311,	-2.40005,	-2.19114,	-2.01214,	-1.91923,	-1.72685,	-1.64327,	-1.73180,	-1.71467,	-1.52199,	-1.39813,	-1.32987,	-1.09965,	-0.94062,	-0.85067,	-0.72867,	-0.67429,	-0.60404,	-0.54870,	-0.47016,	-0.42114,	-0.41946,	-0.48613,	-0.48401,	-0.49865,	-0.63958,	-0.74552,	-0.72146,	-0.62664,	-0.64651,	-0.70786,	-0.65788,	-0.56385,	-0.67961,	-0.77371,	-0.69725,	-0.72712,	-0.74831,	-0.75700,	-0.86629,	-0.99760,	-0.98496,	-0.91732,	-0.99873,	-1.02803,	-1.16824,	-1.28505,	-1.25610,	-1.30946,	-1.27990,	-1.24259,	-1.25845,	-1.30910,	-1.38297,	-1.37409,	-1.31481,	-1.18802,	-1.23088,	-1.44598,	-1.71482,	-1.83679,	-1.93127,	-2.14752,	-2.41907,	-2.49120,	-2.60570,	-2.80218,	-2.85508,	-2.83490,	-2.76344,	-2.71748,	-2.84859,	-2.99805,	-3.07712,	-3.16175,	-3.33527,	-3.40639,	-3.55496,	-3.73178,	-3.69188,	-3.57839,	-3.41096,	-3.20344,	-2.99939,	-2.88472,	-2.90942,	-2.93028,	-2.84360,	-2.61970,	-2.53896,	-2.38977,	-2.17275,	-1.90467,	-1.75101,	-1.71319,	-1.70371,	-1.62219,	-1.64330,	-1.73434,	-1.64038,	-1.59618,	-1.55143,	-1.43549,	-1.53655,	-1.72830,	-1.86143,	-1.79518,	-1.77955,	-1.73752,	-1.68267,	-1.73552,	-1.66961,	-1.60121,	-1.52759,	-1.35282,	-1.22316,	-1.08126,	-1.04585,	-1.18272,	-1.40474,	-1.41373,	-1.46264,	-1.54345,	-1.74509,	-1.73749,	-1.61510,	-1.53760,	-1.44159,	-1.11474,	-0.90930,	-0.97659,	-0.92900,	-0.85268,	-0.81056,	-0.66491,	-0.55405,	-0.42792,	-0.20999,	0.12441,	0.31615,	0.48767,	0.59026,	0.52695,	0.60719,	0.61974,	0.58145,	0.62975,	0.67262,	0.59868,	0.34063,	0.11361,	-0.01908,	0.09728,	0.16551,	0.30149,	0.37263,	0.50176,	0.61711,	0.68576,	0.70850,	0.85365,	0.97777,	0.95617,	0.98491,	1.02881,	0.97361,	1.16312,	1.34884,	1.48364,	1.65261,	1.82570,	1.81961,	1.78705,	1.74255,	1.66060,	1.72607,	1.86389,	1.92974,	1.93275,	1.88082,	1.88783,	1.85133,	1.70144,	1.44316,	1.44730,	1.45548,	1.38138,	1.20118,	1.12490,	1.06860,	0.90505,	0.73388,	0.75828,	0.78457,	0.58587,	0.49845,	0.46087,	0.26614,	0.10493,	-0.14323,	-0.45435,	-0.71034,	-0.79576,	-0.93793,	-1.13249,	-1.24780,	-1.34771,	-1.21491
-2.45614,	-2.37087,	-2.32551,	-2.17346,	-2.05088,	-1.99032,	-1.87102,	-1.81500,	-1.79663,	-1.68867,	-1.57926,	-1.42981,	-1.30559,	-1.24247,	-1.24376,	-1.13371,	-0.98183,	-0.83150,	-0.57129,	-0.42634,	-0.35929,	-0.34056,	-0.36434,	-0.39913,	-0.50830,	-0.45696,	-0.43158,	-0.35207,	-0.33911,	-0.36459,	-0.58306,	-0.79230,	-0.96504,	-1.08589,	-1.18729,	-1.20593,	-1.23318,	-1.29387,	-1.31320,	-1.33177,	-1.32363,	-1.10568,	-0.87268,	-0.71267,	-0.56892,	-0.42477,	-0.49087,	-0.61630,	-0.61593,	-0.57603,	-0.58297,	-0.74619,	-0.84272,	-0.76792,	-0.67420,	-0.48800,	-0.36802,	-0.16743,	-0.14266,	-0.21601,	-0.32450,	-0.42268,	-0.61120,	-0.67600,	-0.70405,	-0.77941,	-1.01068,	-1.27320,	-1.57509,	-1.98565,	-2.28987,	-2.52918,	-2.79567,	-2.98419,	-3.04386,	-3.06333,	-3.13297,	-3.25731,	-3.47173,	-3.65925,	-3.79128,	-3.94694,	-4.04252,	-4.23061,	-4.38501,	-4.36474,	-4.17074,	-3.86083,	-3.72933,	-3.52801,	-3.40074,	-3.39349,	-3.36526,	-3.32991,	-3.32358,	-3.25788,	-3.13347,	-3.03202,	-3.08861,	-3.07681,	-2.87672,	-2.58576,	-2.25579,	-2.07163,	-2.04211,	-1.95164,	-1.88934,	-1.89088,	-1.77184,	-1.56612,	-1.48997,	-1.43430,	-1.23419,	-1.06137,	-0.91714,	-0.86350,	-0.88476,	-0.84317,	-0.80047,	-0.68288,	-0.64111,	-0.59599,	-0.56592,	-0.62342,	-0.66835,	-0.72277,	-0.79572,	-0.80650,	-0.75101,	-0.74900,	-0.81822,	-0.86515,	-0.86153,	-0.94207,	-0.89834,	-0.79848,	-0.89720,	-0.98892,	-0.99707,	-1.01066,	-1.05063,	-1.06903,	-1.13860,	-1.26436,	-1.28386,	-1.34055,	-1.28149,	-1.23436,	-1.37695,	-1.42891,	-1.48396,	-1.48375,	-1.49174,	-1.48692,	-1.34986,	-1.33874,	-1.32032,	-1.39169,	-1.61911,	-1.86116,	-1.94163,	-2.02179,	-2.26484,	-2.65222,	-2.87963,	-3.05476,	-3.15383,	-3.18718,	-3.21515,	-3.16512,	-3.12711,	-3.18221,	-3.22042,	-3.29181,	-3.45528,	-3.63341,	-3.66625,	-3.75098,	-3.78608,	-3.74289,	-3.74184,	-3.61389,	-3.42608,	-3.18894,	-3.02370,	-2.99894,	-2.91433,	-2.92200,	-2.85085,	-2.72778,	-2.53592,	-2.29303,	-1.97411,	-1.77852,	-1.67266,	-1.67414,	-1.66337,	-1.66284,	-1.56031,	-1.36841,	-1.36288,	-1.37969,	-1.37732,	-1.47061,	-1.55104,	-1.61773,	-1.56360,	-1.53360,	-1.49463,	-1.47762,	-1.47743,	-1.41537,	-1.42986,	-1.35740,	-1.20770,	-1.07192,	-0.93605,	-0.96769,	-1.02056,	-1.23146,	-1.33976,	-1.36733,	-1.43468,	-1.64601,	-1.65934,	-1.61253,	-1.57020,	-1.56336,	-1.35051,	-1.15851,	-1.08543,	-0.98100,	-0.96543,	-0.97433,	-0.89109,	-0.72636,	-0.44095,	-0.14014,	0.14925,	0.31114,	0.44925,	0.53422,	0.57525,	0.67142,	0.59101,	0.52954,	0.52054,	0.51796,	0.46483,	0.23862,	0.14560,	0.03982,	0.03462,	0.10641,	0.28982,	0.38067,	0.53589,	0.65434,	0.79077,	0.81719,	0.87495,	0.93816,	0.97369,	1.04313,	1.04204,	0.96892,	1.11735,	1.32082,	1.52788,	1.67659,	1.71895,	1.65160,	1.61810,	1.59156,	1.61367,	1.70979,	1.71247,	1.65981,	1.61086,	1.61488,	1.73549,	1.75529,	1.74911,	1.56553,	1.44301,	1.40521,	1.35767,	1.18749,	1.14876,	1.08948,	0.93389,	0.70933,	0.61413,	0.57914,	0.47816,	0.50214,	0.49963,	0.31788,	0.12098,	-0.10776,	-0.33801,	-0.52927,	-0.64996,	-0.84409,	-1.03261,	-1.12979,	-1.15846,	-1.01715
-2.40365,	-2.37746,	-2.21782,	-2.04313,	-1.94789,	-1.78395,	-1.61755,	-1.69678,	-1.73887,	-1.66408,	-1.53581,	-1.32693,	-1.23794,	-1.28176,	-1.17898,	-1.09356,	-0.93760,	-0.80382,	-0.62436,	-0.55146,	-0.47610,	-0.45114,	-0.51078,	-0.56031,	-0.56105,	-0.42313,	-0.41464,	-0.40272,	-0.34582,	-0.28544,	-0.46758,	-0.73368,	-0.87458,	-0.92300,	-0.84819,	-0.85033,	-1.04532,	-1.23231,	-1.27746,	-1.33926,	-1.26761,	-1.10021,	-0.93975,	-0.70574,	-0.53783,	-0.51409,	-0.51417,	-0.65680,	-0.67400,	-0.62251,	-0.62443,	-0.77158,	-0.80344,	-0.70840,	-0.65144,	-0.54785,	-0.43565,	-0.18467,	-0.13457,	-0.23792,	-0.40602,	-0.51582,	-0.65455,	-0.79542,	-0.85422,	-0.94003,	-1.06696,	-1.33482,	-1.81913,	-2.24743,	-2.52191,	-2.87288,	-3.15745,	-3.34918,	-3.37766,	-3.27537,	-3.30243,	-3.54773,	-3.76179,	-3.96449,	-4.08199,	-4.16186,	-4.27229,	-4.46664,	-4.58586,	-4.51290,	-4.35230,	-4.11824,	-3.93190,	-3.70103,	-3.64863,	-3.68673,	-3.61394,	-3.43067,	-3.28833,	-3.28568,	-3.29663,	-3.34625,	-3.31070,	-3.11456,	-2.93401,	-2.69527,	-2.37687,	-2.24072,	-2.19907,	-2.11203,	-2.06330,	-1.97566,	-1.80430,	-1.68967,	-1.56840,	-1.45483,	-1.25382,	-1.04003,	-0.96335,	-1.03047,	-1.15918,	-1.12672,	-1.06862,	-0.97816,	-0.95038,	-0.87186,	-0.82020,	-0.86781,	-0.84279,	-0.76058,	-0.69583,	-0.77145,	-0.86612,	-0.91035,	-0.91730,	-0.87438,	-0.95789,	-1.07346,	-0.94952,	-0.86893,	-1.00302,	-1.11664,	-1.21892,	-1.20657,	-1.16085,	-1.24005,	-1.33747,	-1.39419,	-1.42438,	-1.37224,	-1.34076,	-1.34858,	-1.49886,	-1.57406,	-1.70441,	-1.74282,	-1.68438,	-1.51616,	-1.33302,	-1.37807,	-1.46755,	-1.60756,	-1.72819,	-1.88394,	-2.01882,	-2.21258,	-2.50293,	-2.79061,	-3.10220,	-3.38257,	-3.45971,	-3.52598,	-3.61669,	-3.55448,	-3.52246,	-3.48411,	-3.36863,	-3.46574,	-3.68467,	-3.85039,	-3.99050,	-3.98200,	-3.95478,	-3.91417,	-3.98794,	-3.87981,	-3.69103,	-3.46459,	-3.22387,	-3.04419,	-2.89935,	-2.97601,	-2.99292,	-2.82740,	-2.53670,	-2.27002,	-2.04479,	-1.87015,	-1.68974,	-1.50502,	-1.50206,	-1.58212,	-1.48230,	-1.30200,	-1.31055,	-1.27287,	-1.31353,	-1.35542,	-1.29809,	0.00000,	0.00000,	0.00000,	0.00000,	0.00000,	0.00000,	0.00000,	-1.27251,	-1.11104,	-0.95773,	-0.91236,	-0.89607,	-0.95518,	-0.94209,	-1.07841,	-1.19948,	-1.28386,	-1.33702,	-1.49682,	-1.62705,	-1.68180,	-1.69503,	-1.59355,	-1.42113,	-1.33116,	-1.21271,	-1.06404,	-1.06008,	-1.02393,	-0.98874,	-0.86654,	-0.51581,	-0.17122,	0.08714,	0.33485,	0.35520,	0.44586,	0.50529,	0.58889,	0.52523,	0.53517,	0.54557,	0.45972,	0.35355,	0.24336,	0.23127,	0.12623,	0.07214,	0.14444,	0.42340,	0.59271,	0.63699,	0.64746,	0.67843,	0.81855,	0.95602,	0.95239,	0.99250,	1.10149,	1.05836,	1.02508,	1.07990,	1.21981,	1.49350,	1.59365,	1.46663,	1.46910,	1.43586,	1.50728,	1.57205,	1.59781,	1.46054,	1.33873,	1.36087,	1.45981,	1.61126,	1.67696,	1.74432,	1.63133,	1.49258,	1.43904,	1.45600,	1.36469,	1.22449,	1.07053,	0.84753,	0.74922,	0.76328,	0.64169,	0.50586,	0.48167,	0.37653,	0.26453,	0.11171,	-0.12818,	-0.32258,	-0.47657,	-0.67640,	-0.78076,	-0.91313,	-0.93767,	-0.90366,	-0.85057
-2.24663,	-2.23270,	-2.04687,	-1.97498,	-1.93789,	-1.76944,	-1.54028,	-1.47730,	-1.47860,	-1.37628,	-1.24389,	-1.18672,	-1.16402,	-1.17977,	-1.04705,	-0.95332,	-0.84238,	-0.85713,	-0.78762,	-0.68056,	-0.57604,	-0.52724,	-0.57906,	-0.61880,	-0.54768,	-0.43679,	-0.49183,	-0.46076,	-0.35962,	-0.35416,	-0.46689,	-0.58550,	-0.64752,	-0.63912,	-0.52405,	-0.62958,	-0.92999,	-1.19012,	-1.17531,	-1.07365,	-0.93791,	-0.80534,	-0.72279,	-0.63161,	-0.53089,	-0.49185,	-0.44236,	-0.51398,	-0.52594,	-0.59127,	-0.62672,	-0.65065,	-0.61862,	-0.54930,	-0.54516,	-0.54147,	-0.49607,	-0.31658,	-0.27418,	-0.27149,	-0.39841,	-0.62425,	-0.79579,	-0.92338,	-1.00679,	-1.10686,	-1.19026,	-1.50099,	-2.06193,	-2.53237,	-2.80574,	-3.08114,	-3.33127,	-3.50156,	-3.52604,	-3.54791,	-3.67635,	-3.91683,	-4.11621,	-4.26762,	-4.31005,	-4.41064,	-4.55228,	-4.62383,	-4.63110,	-4.51922,	-4.43396,	-4.31871,	-4.13522,	-3.93168,	-3.89413,	-3.82613,	-3.65425,	-3.50582,	-3.41363,	-3.39539,	-3.42467,	-3.48771,	-3.31777,	-3.04537,	-2.88941,	-2.73729,	-2.48304,	-2.25444,	-2.12403,	-2.00758,	-1.93801,	-1.90596,	-1.84465,	-1.74072,	-1.54454,	-1.35096,	-1.11043,	-0.98609,	-1.04109,	-1.13724,	-1.28476,	-1.27135,	-1.20280,	-1.12373,	-1.10521,	-1.05603,	-1.03896,	-1.03093,	-0.89958,	-0.80327,	-0.72733,	-0.70892,	-0.76001,	-0.81177,	-0.79280,	-0.77470,	-0.95512,	-1.11552,	-1.01740,	-0.90871,	-0.99249,	-1.11775,	-1.27464,	-1.34651,	-1.40452,	-1.47520,	-1.52283,	-1.50674,	-1.45764,	-1.41476,	-1.54453,	-1.56981,	-1.60794,	-1.62843,	-1.71029,	-1.73350,	-1.65787,	-1.47587,	-1.39416,	-1.45908,	-1.52148,	-1.69887,	-1.80147,	-1.83158,	-1.89969,	-2.18143,	-2.52893,	-2.82104,	-3.23192,	-3.57798,	-3.68312,	-3.69793,	-3.72703,	-3.69150,	-3.65634,	-3.64108,	-3.64642,	-3.76380,	-3.93265,	-4.08145,	-4.19310,	-4.15254,	-4.16453,	-4.06796,	-4.05905,	-3.96038,	-3.78433,	-3.60918,	-3.37049,	-3.11605,	-2.95197,	-2.93913,	-2.83471,	-2.66543,	-2.46562,	-2.18221,	-1.92121,	-1.76446,	-1.58335,	-1.39310,	-1.47974,	-1.61726,	-1.58908,	-1.37693,	-1.24099,	-1.15734,	-1.17924,	-1.20590,	0.00000,	0.00000,	0.00000,	0.00000,	0.00000,	0.00000,	0.00000,	0.00000,	0.00000,	0.00000,	-0.67131,	-0.73070,	-0.81806,	-0.86219,	-0.81651,	-0.86337,	-0.87961,	-1.04320,	-1.26390,	-1.39340,	-1.46002,	-1.53497,	-1.55664,	-1.43767,	-1.39675,	-1.40290,	-1.31823,	-1.13142,	-1.01225,	-0.97128,	-0.94035,	-0.87492,	-0.68617,	-0.33500,	0.01862,	0.34842,	0.42673,	0.53449,	0.48892,	0.51898,	0.55649,	0.63723,	0.70210,	0.63920,	0.53214,	0.48734,	0.45220,	0.34971,	0.37318,	0.43631,	0.56158,	0.67943,	0.73618,	0.67994,	0.62801,	0.79247,	0.89856,	0.85978,	0.86638,	1.01930,	1.11744,	1.10027,	1.05342,	1.10033,	1.22529,	1.28080,	1.20857,	1.27970,	1.33381,	1.45727,	1.41126,	1.37280,	1.30042,	1.26602,	1.41544,	1.59807,	1.74643,	1.79329,	1.81950,	1.75659,	1.74790,	1.74872,	1.68630,	1.59465,	1.47114,	1.26846,	1.01027,	0.94433,	0.89597,	0.68055,	0.46600,	0.36363,	0.30390,	0.24723,	0.13832,	-0.08181,	-0.38278,	-0.57579,	-0.72951,	-0.77603,	-0.79976,	-0.71734,	-0.69281,	-0.67295
