-1.09012,	-1.05450,	-1.03866,	-1.04169,	-1.13612,	-1.21963,	-1.31204,	-1.35787,	-1.37944,	-1.26466,	-1.17304,	-1.12503,	-1.15813,	-1.04243,	-1.02056,	-1.01316,	-0.93862,	-0.77531,	-0.64746,	-0.55717,	-0.50394,	-0.27514,	-0.08820,	0.02864,	0.18659,	0.35223,	0.50423,	0.49968,	0.48169,	0.40011,	0.40198,	0.45771,	0.37134,	0.38180,	0.50216,	0.71344,	0.88738,	1.03272,	0.95292,	0.90632,	0.96887,	1.21362,	1.45962,	1.57723,	1.55965,	1.74757,	1.90365,	1.97380,	2.07443,	2.20159,	2.30304,	2.45094,	2.55747,	2.73195,	2.71013,	2.57548,	2.57631,	2.68134,	2.79742,	2.76444,	2.71973,	2.59100,	2.43942,	2.32198,	2.01789,	1.81192,	1.67195,	1.53575,	1.38567,	1.28636,	1.10115,	1.00062,	0.88274,	0.81803,	0.69678,	0.52371,	0.32450,	0.33980,	0.30587,	0.14348,	-0.08117,	-0.29033,	-0.54049,	-0.84847,	-1.14519,	-1.26350,	-1.32663,	-1.41786,	-1.46933,	-1.48423,	-1.47265,	-1.63448,	-1.80942,	-1.98431,	-2.08567,	-2.05989,	-2.17296,	-2.23073,	-2.37843,	-2.51518,	-2.63643,	-2.72452,	-2.90479,	-3.07246,	-3.17542,	-3.07028,	-2.95464,	-2.98966,	-3.19351,	-3.39744,	-3.58484,	-3.80216,	-3.85644,	-3.76475,	-3.70701,	-3.66890,	-3.64576,	-3.50052,	-3.37134,	-3.33324,	-3.18765,	-2.94433,	-2.61430,	-2.39157,	-2.22373,	-2.08729,	-2.01364,	-1.93040,	-1.96736,	-1.94023,	-1.81934,	-1.62780,	-1.40027,	-1.18127,	-1.03722,	-0.91620,	-0.73562,	-0.47297,	-0.24075,	-0.15199,	-0.18247,	-0.13943,	-0.06773,	-0.21314,	-0.41829,	-0.56291,	-0.66084,	-0.72157,	-0.77664,	-0.70113,	-0.49579,	-0.35050,	-0.15535,	0.05976,	0.29745,	0.42807,	0.51309,	0.61563,	0.54547,	0.58104,	0.60706,	0.69071,	0.82080,	0.83398,	0.80111,	0.78569,	0.74881,	0.63504,	0.52870,	0.35435,	0.15447,	-0.10653,	-0.39533,	-0.67112,	-0.88295,	-1.13751,	-1.22603,	-1.15132,	-1.08592,	-1.09067,	-1.18356,	-1.25830,	-1.22337,	-1.27357,	-1.28383,	-1.19539,	-1.14179,	-1.27404,	-1.48810,	-1.63926,	-1.82800,	-1.87003,	-1.91241,	-1.98785,	-1.98518,	-2.00253,	-1.97079,	-1.93642,	-1.92606,	-2.00837,	-2.01247,	-1.90210,	-1.63861,	-1.41031,	-1.23090,	-1.09182,	-0.86315,	-0.81996,	-0.82943,	-0.81897,	-0.76204,	-0.73634,	-0.74707,	-0.75903,	-0.60011,	-0.57580,	-0.61876,	-0.72818,	-1.02181,	-1.33399,	-1.61937,	-1.73160,	-1.86707,	-1.90572,	-1.83409,	-1.67295,	-1.38794,	-1.18500,	-1.04261,	-1.01637,	-0.95779,	-0.91155,	-0.75862,	-0.67863,	-0.66326,	-0.75459,	-0.80143,	-0.92345,	-0.88165,	-0.90360,	-0.86649,	-0.77752,	-0.65450,	-0.63657,	-0.69659,	-0.77808,	-0.81211,	-0.87535,	-0.85745,	-0.68272,	-0.50420,	-0.35879,	-0.35997,	-0.34955,	-0.47955,	-0.56513,	-0.55284,	-0.55616,	-0.40898,	-0.23236,	-0.02615,	0.17873,	0.37726,	0.42386,	0.49313,	0.55161,	0.72626,	0.89626,	1.03770,	1.04819,	1.19685,	1.20872,	1.20745,	1.25324,	1.45399,	1.59782,	1.74781,	1.74091,	1.73167,	1.59681,	1.39534,	1.25131,	1.02908,	0.72893,	0.37284,	0.19804,	0.01664,	-0.15822,	-0.28122,	-0.59441,	-0.80430,	-0.99008,	-1.10350,	-1.26467,	-1.47378,	-1.76145,	-1.92522,	-2.08113,	-2.19858,	-2.32503,	-2.46426,	-2.63675,	-2.60564,	-2.60911,	-2.69226,	-2.77260,	-2.87669
-0.69720,	-0.78176,	-0.90493,	-1.06940,	-1.17867,	-1.15797,	-1.09947,	-1.21517,	-1.25037,	-1.15344,	-1.10769,	-0.99953,	-1.03075,	-0.97842,	-0.97667,	-0.83075,	-0.75719,	-0.65546,	-0.53774,	-0.53042,	-0.42066,	-0.20899,	-0.08137,	0.06673,	0.22514,	0.33431,	0.51868,	0.52313,	0.55249,	0.43008,	0.44468,	0.55304,	0.52014,	0.50402,	0.60209,	0.77329,	0.95760,	1.12710,	1.16034,	1.04266,	1.10347,	1.32372,	1.44303,	1.55628,	1.58965,	1.78544,	1.86482,	1.94573,	1.98187,	2.08881,	2.30823,	2.42832,	2.56744,	2.73004,	2.69417,	2.62974,	2.64347,	2.65827,	2.79756,	2.85252,	2.89253,	2.65216,	2.38734,	2.17579,	1.91213,	1.74970,	1.62721,	1.43956,	1.24611,	1.16384,	1.12987,	0.98928,	0.81660,	0.72371,	0.49909,	0.36502,	0.22337,	0.20186,	0.09925,	0.03443,	-0.12005,	-0.35549,	-0.54924,	-0.87139,	-1.07865,	-1.09749,	-1.16868,	-1.27466,	-1.36423,	-1.54635,	-1.59956,	-1.75091,	-1.87725,	-2.07230,	-2.19074,	-2.15133,	-2.20766,	-2.28104,	-2.45165,	-2.62462,	-2.74321,	-2.81051,	-2.87432,	-3.05557,	-3.12493,	-2.91824,	-2.88856,	-2.96064,	-3.13095,	-3.26882,	-3.42065,	-3.53526,	-3.56584,	-3.59234,	-3.51840,	-3.53482,	-3.53826,	-3.35113,	-3.22318,	-3.09392,	-2.88576,	-2.79516,	-2.57524,	-2.40014,	-2.13826,	-1.91611,	-1.81520,	-1.73268,	-1.76395,	-1.75082,	-1.63802,	-1.49147,	-1.33510,	-1.14746,	-0.91928,	-0.79215,	-0.68778,	-0.45192,	-0.34997,	-0.29804,	-0.26842,	-0.22426,	-0.22362,	-0.30197,	-0.39022,	-0.55001,	-0.62359,	-0.76723,	-0.88950,	-0.77283,	-0.56723,	-0.36085,	-0.07728,	0.10332,	0.33129,	0.52966,	0.69629,	0.82718,	0.73500,	0.78271,	0.85156,	0.91588,	0.98566,	0.94197,	0.90742,	0.92241,	0.89169,	0.69178,	0.43065,	0.30966,	0.08647,	-0.21166,	-0.47388,	-0.75436,	-0.98034,	-1.16117,	-1.13623,	-1.08063,	-0.94229,	-0.88045,	-1.01488,	-1.09488,	-1.15180,	-1.25491,	-1.14769,	-1.01714,	-0.96666,	-1.07487,	-1.27676,	-1.38538,	-1.57940,	-1.62318,	-1.68584,	-1.79765,	-1.83881,	-1.86776,	-1.87388,	-1.84863,	-1.80309,	-1.82704,	-1.90498,	-1.77510,	-1.58881,	-1.41767,	-1.15815,	-0.96322,	-0.78969,	-0.79039,	-0.74270,	-0.79569,	-0.72735,	-0.69162,	-0.77715,	-0.72341,	-0.58964,	-0.59791,	-0.62205,	-0.81332,	-1.21254,	-1.51485,	-1.76854,	-1.84882,	-2.03229,	-2.06755,	-1.92287,	-1.72440,	-1.54446,	-1.46138,	-1.39827,	-1.28364,	-1.10779,	-0.94005,	-0.86512,	-0.73749,	-0.68767,	-0.80685,	-0.78498,	-0.83482,	-0.77003,	-0.74407,	-0.64359,	-0.68532,	-0.68984,	-0.73743,	-0.81953,	-0.74146,	-0.70452,	-0.76574,	-0.69335,	-0.50170,	-0.37097,	-0.23051,	-0.26994,	-0.26047,	-0.44228,	-0.52664,	-0.51949,	-0.53008,	-0.44693,	-0.29180,	-0.10912,	0.10702,	0.30981,	0.46236,	0.47875,	0.58014,	0.72161,	0.74486,	0.87730,	0.91366,	1.06160,	1.05142,	1.13452,	1.17105,	1.32659,	1.48840,	1.56322,	1.62527,	1.66419,	1.55417,	1.44537,	1.32931,	1.02803,	0.73966,	0.45871,	0.35623,	0.07464,	-0.19587,	-0.33288,	-0.52748,	-0.71242,	-0.91176,	-1.09077,	-1.25544,	-1.43100,	-1.61243,	-1.86104,	-2.01210,	-2.07676,	-2.23754,	-2.38478,	-2.58140,	-2.63545,	-2.72578,	-2.64168,	-2.60357,	-2.71125
-0.61176,	-0.71169,	-0.82147,	-1.04729,	-1.16577,	-1.07877,	-0.87004,	-0.92854,	-1.05386,	-1.02536,	-0.96023,	-0.92569,	-1.09685,	-1.11815,	-0.98072,	-0.79070,	-0.71965,	-0.60681,	-0.47084,	-0.45355,	-0.34726,	-0.16337,	-0.00019,	0.07922,	0.13667,	0.28788,	0.57825,	0.65329,	0.60300,	0.48805,	0.52935,	0.66356,	0.64433,	0.61550,	0.71343,	0.82092,	0.95165,	1.14594,	1.33923,	1.28230,	1.24312,	1.38526,	1.53482,	1.64075,	1.61465,	1.71178,	1.85343,	1.92764,	1.93309,	2.09664,	2.39763,	2.55487,	2.70518,	2.84267,	2.87904,	2.78822,	2.65069,	2.62922,	2.79978,	2.88628,	2.81615,	2.50726,	2.20401,	1.96683,	1.72445,	1.60231,	1.55200,	1.35725,	1.12349,	1.04276,	1.10873,	0.96543,	0.64692,	0.44143,	0.23701,	0.13605,	-0.03463,	-0.14439,	-0.17393,	-0.19059,	-0.33726,	-0.52592,	-0.64425,	-0.88853,	-1.02374,	-1.00275,	-0.93636,	-1.02477,	-1.26420,	-1.50552,	-1.56972,	-1.71659,	-1.94036,	-2.20944,	-2.37327,	-2.33673,	-2.36713,	-2.38390,	-2.43612,	-2.60330,	-2.76849,	-2.81295,	-2.75075,	-2.83410,	-2.93575,	-2.83199,	-2.80304,	-2.82583,	-2.96672,	-3.08724,	-3.10997,	-3.13649,	-3.21314,	-3.29959,	-3.25618,	-3.31848,	-3.40324,	-3.30105,	-3.12041,	-2.95089,	-2.82780,	-2.75309,	-2.50118,	-2.28974,	-2.04892,	-1.83704,	-1.71174,	-1.59886,	-1.60622,	-1.57450,	-1.40867,	-1.33094,	-1.30742,	-1.16745,	-0.88303,	-0.67524,	-0.64034,	-0.57777,	-0.54616,	-0.48364,	-0.46729,	-0.48799,	-0.44449,	-0.40358,	-0.46309,	-0.56222,	-0.53389,	-0.62960,	-0.75243,	-0.66860,	-0.42299,	-0.17628,	0.02056,	0.14757,	0.38362,	0.63321,	0.78650,	0.90222,	0.86725,	0.93427,	1.01026,	1.08960,	1.20762,	1.15427,	1.03736,	0.97864,	0.93523,	0.78928,	0.49469,	0.28220,	0.04557,	-0.21181,	-0.49339,	-0.84849,	-1.05047,	-1.11704,	-1.13457,	-1.10070,	-0.90702,	-0.78444,	-0.90036,	-1.01748,	-1.06674,	-1.11674,	-1.03399,	-0.90090,	-0.78540,	-0.82359,	-1.02705,	-1.20488,	-1.41464,	-1.53926,	-1.67936,	-1.81807,	-1.82441,	-1.81213,	-1.86392,	-1.87324,	-1.79746,	-1.69224,	-1.75498,	-1.75377,	-1.63642,	-1.43527,	-1.19008,	-1.03505,	-0.82821,	-0.68420,	-0.63716,	-0.69762,	-0.60227,	-0.55137,	-0.65837,	-0.69507,	-0.65113,	-0.66780,	-0.80372,	-1.05923,	-1.40434,	-1.65881,	-1.89320,	-2.01975,	-2.15916,	-2.16999,	-2.02237,	-1.86358,	-1.70816,	-1.61752,	-1.58513,	-1.44362,	-1.20546,	-0.88702,	-0.77097,	-0.72766,	-0.69147,	-0.75387,	-0.76825,	-0.88034,	-0.83676,	-0.68412,	-0.62502,	-0.75891,	-0.81156,	-0.85112,	-0.86868,	-0.73890,	-0.64758,	-0.57218,	-0.49810,	-0.36057,	-0.22840,	-0.14772,	-0.26377,	-0.39092,	-0.58701,	-0.66103,	-0.65256,	-0.67070,	-0.57809,	-0.36814,	-0.21622,	-0.05088,	0.13660,	0.39355,	0.43932,	0.47626,	0.59793,	0.67089,	0.80126,	0.79772,	0.91381,	1.04066,	1.13399,	1.08119,	1.17101,	1.32362,	1.40624,	1.51000,	1.57989,	1.56988,	1.48061,	1.34049,	1.11230,	0.88585,	0.63174,	0.40692,	0.07957,	-0.20780,	-0.32145,	-0.45648,	-0.60379,	-0.73364,	-0.94917,	-1.17223,	-1.35203,	-1.46137,	-1.72896,	-1.99395,	-2.13136,	-2.25001,	-2.39562,	-2.64600,	-2.77030,	-2.72252,	-2.51382,	-2.43465,	-2.49353
-0.54423,	-0.63390,	-0.75489,	-0.96209,	-0.96327,	-0.87178,	-0.77667,	-0.75822,	-0.78056,	-0.85253,	-0.82310,	-0.85839,	-1.05621,	-1.17603,	-1.05712,	-0.82511,	-0.71064,	-0.56946,	-0.40661,	-0.34558,	-0.20568,	-0.07113,	0.03861,	0.02766,	0.12888,	0.31822,	0.61064,	0.80244,	0.83451,	0.73989,	0.79338,	0.94637,	0.95279,	0.91014,	0.92308,	0.95507,	1.12400,	1.30953,	1.40098,	1.39892,	1.47149,	1.54225,	1.69456,	1.82444,	1.84700,	1.79532,	1.82035,	1.89336,	1.93307,	2.13108,	2.44782,	2.62047,	2.80925,	2.92469,	2.96304,	2.82641,	2.67938,	2.62856,	2.69538,	2.77744,	2.73954,	2.42875,	2.13274,	1.92220,	1.70563,	1.57922,	1.48861,	1.25024,	1.07420,	1.00008,	0.91492,	0.70315,	0.45780,	0.20106,	0.00556,	-0.05223,	-0.15468,	-0.36065,	-0.49183,	-0.49918,	-0.59309,	-0.71962,	-0.78558,	-0.97343,	-1.02241,	-0.97728,	-0.83286,	-0.90744,	-1.13891,	-1.36489,	-1.53539,	-1.68156,	-1.82402,	-2.10095,	-2.30014,	-2.25314,	-2.24485,	-2.21559,	-2.23613,	-2.43797,	-2.56707,	-2.56501,	-2.59156,	-2.67853,	-2.66336,	-2.64951,	-2.66600,	-2.61194,	-2.60683,	-2.71658,	-2.80894,	-2.82940,	-2.90890,	-3.02271,	-3.03155,	-3.16271,	-3.32807,	-3.34184,	-3.19275,	-3.05067,	-2.88513,	-2.68425,	-2.43786,	-2.18689,	-1.84608,	-1.62310,	-1.50558,	-1.36839,	-1.33646,	-1.27931,	-1.12806,	-1.17196,	-1.19088,	-1.03007,	-0.84878,	-0.70399,	-0.59238,	-0.60566,	-0.66596,	-0.57214,	-0.47011,	-0.50738,	-0.56713,	-0.51830,	-0.52122,	-0.52640,	-0.38351,	-0.41384,	-0.50811,	-0.46567,	-0.26705,	-0.06073,	0.12238,	0.29169,	0.45240,	0.68621,	0.93541,	1.11002,	1.12475,	1.22415,	1.31997,	1.41294,	1.52037,	1.38870,	1.21474,	1.11811,	0.94688,	0.72245,	0.55146,	0.36430,	0.05931,	-0.16516,	-0.38528,	-0.73877,	-1.03972,	-1.13746,	-1.20975,	-1.20388,	-0.99457,	-0.85593,	-0.92363,	-1.01717,	-1.05879,	-1.07925,	-0.97990,	-0.75600,	-0.65487,	-0.70705,	-0.81242,	-0.94948,	-1.19196,	-1.40247,	-1.59678,	-1.73701,	-1.73041,	-1.75323,	-1.81698,	-1.77042,	-1.72849,	-1.67078,	-1.60253,	-1.55853,	-1.56201,	-1.38207,	-1.13133,	-0.95331,	-0.79241,	-0.63119,	-0.55819,	-0.58677,	-0.48559,	-0.44085,	-0.55644,	-0.67739,	-0.77425,	-0.87445,	-1.08209,	-1.24573,	-1.54178,	-1.80566,	-1.92551,	-1.94517,	-2.02250,	-1.99315,	-1.86160,	-1.76926,	-1.65516,	-1.61373,	-1.59146,	-1.37664,	-1.17556,	-0.96351,	-0.75023,	-0.59722,	-0.60880,	-0.65263,	-0.70085,	-0.81288,	-0.88716,	-0.81613,	-0.79127,	-0.93291,	-0.99119,	-0.99691,	-0.95447,	-0.78462,	-0.68816,	-0.55493,	-0.46625,	-0.23871,	-0.13454,	-0.22437,	-0.35498,	-0.44473,	-0.62739,	-0.68099,	-0.65379,	-0.65544,	-0.54304,	-0.34970,	-0.23035,	-0.02787,	0.09545,	0.18747,	0.26759,	0.44881,	0.57555,	0.70126,	0.86644,	0.92793,	0.96403,	1.05507,	1.15352,	1.05436,	1.07140,	1.18898,	1.26580,	1.39871,	1.44978,	1.44829,	1.36176,	1.35209,	1.22758,	0.97383,	0.75266,	0.55967,	0.24099,	-0.02176,	-0.10614,	-0.22448,	-0.37606,	-0.53413,	-0.79418,	-0.96552,	-1.14380,	-1.41456,	-1.73768,	-1.92929,	-2.14466,	-2.28252,	-2.39456,	-2.54847,	-2.71667,	-2.68101,	-2.40952,	-2.27889,	-2.29351
-0.59600,	-0.68957,	-0.76077,	-0.83773,	-0.73637,	-0.64679,	-0.69818,	-0.69365,	-0.66117,	-0.74874,	-0.81288,	-0.95946,	-1.05409,	-1.10701,	-0.93810,	-0.68498,	-0.49436,	-0.39268,	-0.28216,	-0.10890,	0.14324,	0.25197,	0.15936,	0.11074,	0.27150,	0.42215,	0.62048,	0.83474,	0.97702,	0.88484,	0.94139,	1.12028,	1.16509,	1.13154,	1.10841,	1.16495,	1.38126,	1.52620,	1.45392,	1.46905,	1.65459,	1.72829,	1.80098,	1.89522,	2.04178,	1.94849,	1.89338,	1.92438,	2.03710,	2.19303,	2.40440,	2.61988,	2.87350,	3.00142,	2.95327,	2.89849,	2.85106,	2.69580,	2.56617,	2.55104,	2.56048,	2.30769,	2.09996,	1.94831,	1.70953,	1.50640,	1.33455,	1.10623,	0.98174,	0.92318,	0.68239,	0.36072,	0.17257,	-0.00415,	-0.14935,	-0.22644,	-0.26191,	-0.47312,	-0.66013,	-0.70642,	-0.68812,	-0.75981,	-0.91314,	-1.06824,	-0.98635,	-0.87115,	-0.79204,	-0.83171,	-0.97272,	-1.27042,	-1.61462,	-1.76528,	-1.73687,	-1.91246,	-2.05391,	-1.96439,	-1.93138,	-1.95206,	-2.03564,	-2.17806,	-2.21580,	-2.20429,	-2.37595,	-2.52945,	-2.48412,	-2.52758,	-2.59904,	-2.56118,	-2.42849,	-2.44823,	-2.54751,	-2.62360,	-2.68601,	-2.78845,	-2.89003,	-3.00355,	-3.13255,	-3.20743,	-3.21195,	-3.11913,	-2.83185,	-2.54811,	-2.34143,	-2.09339,	-1.68733,	-1.45206,	-1.32838,	-1.17955,	-1.13577,	-1.08556,	-1.00080,	-1.07729,	-1.05425,	-0.83700,	-0.70074,	-0.65804,	-0.56455,	-0.60110,	-0.70526,	-0.63833,	-0.42865,	-0.34508,	-0.45139,	-0.49189,	-0.42858,	-0.31163,	-0.17327,	-0.16886,	-0.19602,	-0.18723,	-0.14719,	0.00647,	0.30501,	0.49356,	0.53790,	0.70686,	1.03338,	1.24959,	1.30542,	1.49734,	1.64342,	1.67511,	1.65889,	1.50911,	1.32851,	1.17023,	0.89132,	0.56892,	0.45509,	0.32194,	0.01675,	-0.26534,	-0.46283,	-0.67649,	-0.94171,	-1.07301,	-1.18401,	-1.19182,	-1.08636,	-0.99668,	-0.97300,	-0.94938,	-0.98366,	-1.01101,	-0.82370,	-0.59350,	-0.59846,	-0.74322,	-0.78608,	-0.82890,	-1.08071,	-1.32108,	-1.51880,	-1.64956,	-1.64089,	-1.65427,	-1.69491,	-1.61829,	-1.59207,	-1.58696,	-1.41691,	-1.29697,	-1.38984,	-1.36878,	-1.15813,	-0.85229,	-0.66606,	-0.54867,	-0.50175,	-0.49656,	-0.48231,	-0.45713,	-0.48762,	-0.57886,	-0.78307,	-1.01511,	-1.16478,	-1.29700,	-1.61438,	-1.87687,	-1.87657,	-1.77779,	-1.82037,	-1.70822,	-1.59961,	-1.63552,	-1.62675,	-1.61087,	-1.55061,	-1.31297,	-1.15494,	-1.11027,	-0.89165,	-0.62818,	-0.57931,	-0.63819,	-0.74717,	-0.78388,	-0.88977,	-0.93877,	-0.98650,	-1.02559,	-1.07953,	-1.08784,	-0.97296,	-0.73790,	-0.65023,	-0.59864,	-0.42012,	-0.11898,	-0.13160,	-0.42130,	-0.55815,	-0.51875,	-0.62698,	-0.62042,	-0.59035,	-0.62027,	-0.54240,	-0.34421,	-0.15712,	0.08161,	0.11265,	-0.00565,	0.07904,	0.39346,	0.59770,	0.70201,	0.81938,	0.97509,	1.03257,	1.13741,	1.22100,	1.18644,	1.13953,	1.16335,	1.25695,	1.39091,	1.41546,	1.33238,	1.33264,	1.41452,	1.26616,	0.94711,	0.71659,	0.58807,	0.31062,	0.12873,	0.06444,	-0.09741,	-0.31226,	-0.54052,	-0.77245,	-0.84794,	-0.95942,	-1.32374,	-1.69891,	-1.86202,	-2.08564,	-2.31344,	-2.47275,	-2.45107,	-2.50956,	-2.44884,	-2.24094,	-2.04423,	-2.03979
-0.64939,	-0.73271,	-0.64859,	-0.65377,	-0.66415,	-0.56627,	-0.53595,	-0.56512,	-0.62394,	-0.71036,	-0.70525,	-0.90727,	-0.96828,	-0.91499,	-0.62102,	-0.41413,	-0.23364,	-0.19600,	-0.07438,	0.18005,	0.35657,	0.44669,	0.38378,	0.38375,	0.42767,	0.51153,	0.73251,	0.84070,	0.86905,	0.75264,	0.79052,	1.01933,	1.15394,	1.15796,	1.24407,	1.35058,	1.46711,	1.57456,	1.54111,	1.59439,	1.77763,	1.83103,	1.94086,	1.98556,	2.11798,	2.06463,	2.08977,	2.06331,	2.16559,	2.21204,	2.36646,	2.63952,	2.76308,	2.83904,	2.86900,	2.97195,	2.92504,	2.71356,	2.64553,	2.56920,	2.43959,	2.20885,	2.04674,	1.91608,	1.64438,	1.34010,	1.18948,	0.98059,	0.72881,	0.66971,	0.51924,	0.24201,	0.08140,	-0.03094,	-0.00735,	-0.12878,	-0.29227,	-0.55295,	-0.72937,	-0.85653,	-0.81192,	-0.86875,	-1.01424,	-1.04867,	-0.97633,	-0.89053,	-0.84227,	-0.85478,	-1.06358,	-1.46457,	-1.69892,	-1.73389,	-1.69053,	-1.79594,	-1.88803,	-1.75958,	-1.66145,	-1.76502,	-1.86835,	-1.91798,	-2.01465,	-2.06350,	-2.21382,	-2.34378,	-2.33715,	-2.41120,	-2.37713,	-2.34033,	-2.27717,	-2.31846,	-2.36323,	-2.48953,	-2.60906,	-2.74023,	-2.85902,	-2.82682,	-2.91802,	-3.04951,	-3.06004,	-2.91090,	-2.64890,	-2.40887,	-2.07324,	-1.76969,	-1.52566,	-1.39363,	-1.30342,	-1.19086,	-1.12096,	-1.07908,	-0.96574,	-0.91726,	-0.90225,	-0.68277,	-0.43802,	-0.38458,	-0.38833,	-0.50023,	-0.55194,	-0.47113,	-0.29828,	-0.17944,	-0.21425,	-0.27688,	-0.21143,	-0.08266,	-0.06020,	-0.03719,	-0.09244,	-0.20839,	-0.18939,	0.05835,	0.36860,	0.44785,	0.54091,	0.79412,	1.05694,	1.16180,	1.19400,	1.44431,	1.67535,	1.63965,	1.53160,	1.45283,	1.22418,	1.01490,	0.82122,	0.58814,	0.46940,	0.28934,	0.06783,	-0.18487,	-0.50053,	-0.72705,	-0.91097,	-1.00705,	-1.13269,	-1.15381,	-1.14807,	-1.02983,	-0.97463,	-0.96613,	-0.91983,	-0.84518,	-0.69691,	-0.64934,	-0.65793,	-0.73154,	-0.83262,	-0.92967,	-1.16756,	-1.36467,	-1.45822,	-1.53292,	-1.49880,	-1.43526,	-1.53476,	-1.55118,	-1.47214,	-1.34478,	-1.11589,	-1.00352,	-1.06871,	-1.05055,	-0.96238,	-0.73985,	-0.62903,	-0.58588,	-0.63688,	-0.65047,	-0.70122,	-0.58709,	-0.54447,	-0.71654,	-0.92824,	-1.08207,	-1.17664,	-1.47065,	-1.75409,	-1.79042,	-1.74374,	-1.73639,	-1.79582,	-1.64872,	-1.49455,	-1.52940,	-1.56554,	-1.47438,	-1.44167,	-1.35535,	-1.19388,	-1.11380,	-0.95206,	-0.73887,	-0.61895,	-0.53857,	-0.68146,	-0.75943,	-0.87516,	-0.95887,	-1.09978,	-1.07012,	-1.11701,	-1.07530,	-0.94445,	-0.82184,	-0.74142,	-0.63631,	-0.40394,	-0.24340,	-0.30672,	-0.45612,	-0.56310,	-0.57558,	-0.65162,	-0.66188,	-0.63404,	-0.65773,	-0.64120,	-0.36126,	-0.12386,	0.02501,	0.07091,	0.04048,	0.17033,	0.44309,	0.60883,	0.76031,	0.79247,	0.88041,	0.97249,	1.17099,	1.20634,	1.20006,	1.09948,	1.12914,	1.26149,	1.20509,	1.16171,	1.16455,	1.26218,	1.19219,	0.97055,	0.83141,	0.66988,	0.51051,	0.28587,	0.14540,	0.08576,	-0.08937,	-0.36813,	-0.57364,	-0.79185,	-0.94193,	-0.96551,	-1.11883,	-1.37787,	-1.56022,	-1.80263,	-1.98838,	-2.20498,	-2.19323,	-2.19941,	-2.10515,	-2.05383,	-1.87730,	-1.89518
-0.62561,	-0.67891,	-0.62082,	-0.59930,	-0.61789,	-0.58500,	-0.48466,	-0.48939,	-0.58928,	-0.67436,	-0.60446,	-0.73849,	-0.73171,	-0.59569,	-0.28622,	-0.11339,	0.00632,	0.08700,	0.09803,	0.23664,	0.44367,	0.55792,	0.50166,	0.49700,	0.52817,	0.64563,	0.82276,	0.79170,	0.77802,	0.69574,	0.70270,	0.90110,	1.09145,	1.14772,	1.19642,	1.32515,	1.49015,	1.54036,	1.54508,	1.65058,	1.82546,	1.87578,	2.03204,	2.11093,	2.26999,	2.31855,	2.38721,	2.34357,	2.36950,	2.40790,	2.44599,	2.58871,	2.69862,	2.77528,	2.79409,	2.87811,	2.85549,	2.74899,	2.75770,	2.63004,	2.46129,	2.26554,	2.06526,	1.84112,	1.52991,	1.23465,	1.03825,	0.81562,	0.59932,	0.49043,	0.37786,	0.20170,	0.08606,	-0.00094,	0.08160,	-0.04434,	-0.26419,	-0.52670,	-0.74521,	-0.92875,	-0.95509,	-0.96676,	-1.09877,	-1.16733,	-1.03995,	-0.90779,	-0.93258,	-1.04963,	-1.29698,	-1.59767,	-1.66164,	-1.63490,	-1.55928,	-1.60023,	-1.71038,	-1.64226,	-1.53062,	-1.60073,	-1.76190,	-1.84103,	-1.89504,	-2.00154,	-2.16169,	-2.23194,	-2.21978,	-2.26763,	-2.16782,	-2.10617,	-2.06687,	-2.09707,	-2.13785,	-2.27452,	-2.47189,	-2.59685,	-2.71788,	-2.75206,	-2.77181,	-2.79373,	-2.78511,	-2.68098,	-2.47299,	-2.18015,	-1.75317,	-1.50542,	-1.37156,	-1.25171,	-1.18557,	-1.17050,	-1.12660,	-1.02624,	-0.91299,	-0.84213,	-0.73609,	-0.53857,	-0.32287,	-0.23395,	-0.25893,	-0.38985,	-0.41865,	-0.31055,	-0.14213,	0.01214,	0.05031,	0.02658,	0.05460,	0.15466,	0.07869,	-0.09133,	-0.18457,	-0.22596,	-0.17297,	0.03054,	0.25855,	0.33505,	0.48741,	0.73045,	0.94936,	1.05844,	1.08592,	1.26990,	1.48473,	1.49149,	1.35017,	1.22540,	1.06667,	0.89948,	0.72777,	0.60107,	0.52378,	0.34712,	0.18488,	-0.01084,	-0.36606,	-0.62052,	-0.79362,	-0.90527,	-1.05713,	-1.09260,	-1.09362,	-1.10624,	-1.07714,	-0.96222,	-0.86641,	-0.84499,	-0.79909,	-0.75113,	-0.67331,	-0.73378,	-0.87458,	-0.94355,	-1.13022,	-1.33884,	-1.40974,	-1.39394,	-1.34615,	-1.34520,	-1.41990,	-1.44220,	-1.41075,	-1.19818,	-0.92082,	-0.80043,	-0.80083,	-0.72191,	-0.67168,	-0.53500,	-0.53395,	-0.60622,	-0.73321,	-0.78344,	-0.78933,	-0.77455,	-0.78548,	-0.89835,	-1.09329,	-1.26209,	-1.37482,	-1.62874,	-1.77751,	-1.71714,	-1.67243,	-1.64807,	-1.67509,	-1.58974,	-1.45244,	-1.39210,	-1.40452,	-1.37693,	-1.33565,	-1.26757,	-1.18252,	-1.07151,	-0.94444,	-0.80268,	-0.68240,	-0.53122,	-0.63435,	-0.70745,	-0.80560,	-0.91445,	-1.07527,	-1.05648,	-1.03785,	-1.10184,	-1.06577,	-0.87378,	-0.75148,	-0.68157,	-0.52108,	-0.39543,	-0.38222,	-0.43926,	-0.55586,	-0.57012,	-0.62948,	-0.73501,	-0.77745,	-0.76988,	-0.76036,	-0.55788,	-0.31084,	-0.10992,	-0.04575,	0.04926,	0.26314,	0.50421,	0.60836,	0.76949,	0.80709,	0.89257,	1.03327,	1.22192,	1.21404,	1.11868,	1.02293,	0.96577,	1.00406,	0.96379,	0.93278,	0.91145,	0.95220,	0.84020,	0.69553,	0.67103,	0.56092,	0.49357,	0.37372,	0.22077,	0.10892,	-0.04586,	-0.29128,	-0.55791,	-0.80891,	-0.91988,	-0.94675,	-0.96861,	-1.06748,	-1.20248,	-1.43449,	-1.58067,	-1.78262,	-1.79351,	-1.79817,	-1.77402,	-1.80886,	-1.70513,	-1.67563
-0.43019,	-0.43408,	-0.37056,	-0.34498,	-0.41386,	-0.49378,	-0.41570,	-0.35854,	-0.45665,	-0.55000,	-0.49311,	-0.57258,	-0.48187,	-0.25695,	0.04040,	0.15842,	0.24798,	0.43031,	0.45257,	0.44100,	0.58770,	0.73026,	0.69186,	0.67044,	0.72273,	0.90090,	0.91594,	0.76258,	0.76598,	0.77225,	0.84102,	0.94148,	1.14418,	1.25441,	1.30204,	1.43570,	1.60178,	1.56310,	1.52355,	1.67770,	1.84791,	1.89302,	2.03811,	2.13232,	2.31922,	2.45576,	2.53369,	2.45873,	2.44648,	2.56289,	2.63512,	2.62745,	2.64070,	2.71043,	2.70584,	2.71717,	2.70294,	2.73690,	2.70604,	2.51148,	2.34950,	2.21977,	2.09623,	1.76321,	1.41005,	1.17405,	1.01899,	0.82669,	0.64125,	0.44372,	0.25776,	0.16728,	0.10963,	0.02920,	0.07586,	-0.09442,	-0.34690,	-0.56886,	-0.79130,	-1.00974,	-1.09303,	-1.03991,	-1.06047,	-1.19638,	-1.13143,	-0.96574,	-1.01838,	-1.21763,	-1.46877,	-1.61769,	-1.65921,	-1.67622,	-1.57513,	-1.54537,	-1.57513,	-1.59250,	-1.52202,	-1.52745,	-1.65560,	-1.74501,	-1.77934,	-1.95718,	-2.19334,	-2.20780,	-2.16276,	-2.20126,	-2.12081,	-2.08149,	-2.04957,	-2.01557,	-2.02285,	-2.16268,	-2.39524,	-2.45706,	-2.45336,	-2.54639,	-2.59767,	-2.51245,	-2.44104,	-2.37919,	-2.22948,	-1.86227,	-1.45891,	-1.35525,	-1.29373,	-1.13181,	-0.95952,	-0.99977,	-1.02395,	-0.87776,	-0.73628,	-0.64662,	-0.48090,	-0.35112,	-0.26556,	-0.17535,	-0.17796,	-0.29891,	-0.32184,	-0.21809,	-0.06267,	0.12749,	0.22548,	0.21036,	0.18141,	0.27408,	0.21951,	-0.08488,	-0.28741,	-0.27987,	-0.18514,	-0.04557,	0.10028,	0.22199,	0.35898,	0.46909,	0.64549,	0.81949,	0.96962,	1.12762,	1.28109,	1.37394,	1.30104,	1.18978,	1.09547,	0.90864,	0.66558,	0.58786,	0.58639,	0.44948,	0.32003,	0.13026,	-0.24793,	-0.51217,	-0.67886,	-0.83759,	-1.02494,	-1.01511,	-0.90502,	-0.97115,	-1.04720,	-0.89213,	-0.73588,	-0.76424,	-0.80281,	-0.68762,	-0.54777,	-0.71059,	-0.89961,	-0.93055,	-1.01174,	-1.19072,	-1.30521,	-1.21573,	-1.13153,	-1.16403,	-1.22202,	-1.28847,	-1.35192,	-1.12645,	-0.80330,	-0.67884,	-0.63986,	-0.54794,	-0.51198,	-0.40207,	-0.44304,	-0.59152,	-0.76817,	-0.81055,	-0.71229,	-0.72718,	-0.85400,	-0.96911,	-1.12297,	-1.30021,	-1.44223,	-1.59651,	-1.62350,	-1.64864,	-1.64678,	-1.56909,	-1.49591,	-1.39943,	-1.34846,	-1.23061,	-1.19579,	-1.17609,	-1.10714,	-1.05907,	-1.07878,	-1.00396,	-0.88360,	-0.81316,	-0.73693,	-0.62277,	-0.70681,	-0.73588,	-0.77069,	-0.87403,	-1.03363,	-0.98239,	-0.82702,	-0.88343,	-0.97714,	-0.78999,	-0.60511,	-0.54746,	-0.47599,	-0.36199,	-0.27389,	-0.39956,	-0.55295,	-0.54120,	-0.55090,	-0.65916,	-0.81917,	-0.79624,	-0.73992,	-0.54109,	-0.28927,	-0.07965,	-0.03787,	0.09307,	0.39990,	0.63621,	0.69551,	0.81582,	0.85704,	0.94699,	1.11239,	1.25232,	1.17908,	1.01184,	0.97003,	0.94478,	0.86584,	0.79864,	0.82732,	0.80167,	0.77085,	0.65927,	0.62125,	0.53711,	0.39434,	0.39170,	0.37848,	0.31924,	0.14467,	0.02040,	-0.14523,	-0.38830,	-0.65666,	-0.78018,	-0.88063,	-0.91905,	-0.88727,	-0.94726,	-1.15889,	-1.32049,	-1.53145,	-1.56230,	-1.55349,	-1.59349,	-1.70225,	-1.64472,	-1.51270
-0.26121,	-0.31347,	-0.27289,	-0.29067,	-0.37724,	-0.46039,	-0.35940,	-0.27500,	-0.33132,	-0.46289,	-0.44546,	-0.48105,	-0.40337,	-0.14555,	0.19404,	0.35534,	0.42372,	0.52817,	0.59797,	0.63576,	0.66117,	0.72148,	0.78316,	0.79698,	0.75848,	0.88717,	0.93068,	0.81103,	0.84598,	0.85289,	0.89988,	0.96649,	1.18009,	1.29822,	1.36436,	1.47070,	1.63423,	1.62257,	1.66336,	1.82889,	2.01903,	2.07701,	2.24716,	2.40561,	2.51332,	2.57573,	2.61512,	2.58696,	2.58522,	2.63998,	2.73070,	2.75129,	2.68719,	2.64905,	2.67748,	2.66492,	2.53943,	2.59504,	2.68577,	2.55059,	2.36736,	2.18766,	2.09494,	1.80058,	1.46269,	1.20084,	1.05544,	0.89184,	0.70343,	0.44777,	0.22206,	0.10940,	0.11146,	0.05453,	0.07311,	-0.10566,	-0.45977,	-0.71175,	-0.85360,	-0.94243,	-0.99276,	-1.05422,	-1.11997,	-1.21977,	-1.21580,	-1.12241,	-1.08162,	-1.15237,	-1.37720,	-1.52524,	-1.55019,	-1.57090,	-1.46514,	-1.43869,	-1.44092,	-1.43917,	-1.36904,	-1.40833,	-1.51431,	-1.61636,	-1.67348,	-1.84277,	-2.01732,	-2.00835,	-1.95684,	-2.03997,	-2.04040,	-1.99614,	-2.02571,	-2.00145,	-1.94734,	-1.97508,	-2.10118,	-2.24762,	-2.31122,	-2.39512,	-2.48586,	-2.40134,	-2.20108,	-2.02502,	-1.94731,	-1.69090,	-1.27187,	-1.15071,	-1.11933,	-0.99881,	-0.79882,	-0.74148,	-0.74744,	-0.70658,	-0.65301,	-0.58827,	-0.40340,	-0.26713,	-0.18007,	-0.12661,	-0.13574,	-0.20094,	-0.15156,	0.04005,	0.14429,	0.22697,	0.30577,	0.34931,	0.36479,	0.34290,	0.19731,	-0.03917,	-0.21589,	-0.28359,	-0.21394,	-0.02670,	0.08518,	0.13499,	0.28328,	0.40241,	0.53975,	0.67934,	0.86760,	1.09579,	1.28634,	1.37039,	1.32252,	1.23544,	1.12154,	0.88442,	0.61857,	0.55275,	0.57463,	0.53553,	0.46377,	0.34289,	-0.03134,	-0.44252,	-0.69559,	-0.88627,	-1.04168,	-1.04722,	-0.97564,	-0.99183,	-1.09945,	-1.05131,	-0.85642,	-0.74910,	-0.78889,	-0.75073,	-0.56267,	-0.60665,	-0.80350,	-0.92435,	-1.04464,	-1.11460,	-1.10578,	-0.99170,	-0.91746,	-0.97603,	-1.06388,	-1.10784,	-1.09065,	-0.81095,	-0.52553,	-0.41175,	-0.40245,	-0.30640,	-0.29204,	-0.32981,	-0.42212,	-0.51236,	-0.60404,	-0.72407,	-0.80520,	-0.84622,	-0.96871,	-1.15472,	-1.29132,	-1.33026,	-1.45186,	-1.64863,	-1.60519,	-1.53785,	-1.53420,	-1.48202,	-1.39484,	-1.21764,	-1.14417,	-1.10451,	-1.14184,	-1.13846,	-1.08132,	-0.98700,	-0.96484,	-0.84930,	-0.76011,	-0.75765,	-0.78254,	-0.75299,	-0.83608,	-0.91091,	-0.91507,	-0.93831,	-1.01538,	-0.95680,	-0.84041,	-0.85539,	-0.93233,	-0.83535,	-0.64140,	-0.41556,	-0.36218,	-0.43000,	-0.41747,	-0.45092,	-0.55207,	-0.57389,	-0.63823,	-0.74105,	-0.88656,	-0.85562,	-0.76822,	-0.54589,	-0.34568,	-0.16501,	-0.10623,	0.08986,	0.40866,	0.66160,	0.73329,	0.90235,	1.01558,	0.97566,	1.00426,	1.10052,	1.06571,	0.89619,	0.75491,	0.71723,	0.64452,	0.52108,	0.56285,	0.68013,	0.69247,	0.51076,	0.48537,	0.51218,	0.39013,	0.32333,	0.27983,	0.30010,	0.22700,	0.20008,	0.06922,	-0.12367,	-0.40304,	-0.59023,	-0.73604,	-0.78015,	-0.72102,	-0.67519,	-0.82413,	-0.97363,	-1.17771,	-1.32036,	-1.36455,	-1.41362,	-1.48422,	-1.40834,	-1.31096
-0.26145,	-0.35883,	-0.29297,	-0.34952,	-0.39474,	-0.46748,	-0.36755,	-0.27418,	-0.29361,	-0.46035,	-0.48661,	-0.46014,	-0.26922,	0.00424,	0.31038,	0.60371,	0.66366,	0.64473,	0.72131,	0.81898,	0.84839,	0.77466,	0.67995,	0.72640,	0.74888,	0.82012,	0.84193,	0.79433,	0.94301,	0.94039,	0.92919,	0.99408,	1.18920,	1.32055,	1.48583,	1.56889,	1.75824,	1.75475,	1.82159,	1.96178,	2.15391,	2.19746,	2.35742,	2.60315,	2.78964,	2.79365,	2.69270,	2.72745,	2.68254,	2.56027,	2.60458,	2.69105,	2.74711,	2.65353,	2.50357,	2.45561,	2.35987,	2.41846,	2.54887,	2.47869,	2.36367,	2.13257,	2.00150,	1.77511,	1.46239,	1.16512,	1.07304,	0.92399,	0.75204,	0.44178,	0.14988,	-0.04201,	-0.02983,	-0.07544,	-0.07084,	-0.17468,	-0.43611,	-0.67219,	-0.85107,	-0.83372,	-0.85963,	-1.07783,	-1.24045,	-1.30351,	-1.22108,	-1.17488,	-1.23957,	-1.20751,	-1.24583,	-1.35154,	-1.41058,	-1.43554,	-1.24598,	-1.19520,	-1.21652,	-1.19041,	-1.14774,	-1.28414,	-1.36219,	-1.48924,	-1.55419,	-1.72840,	-1.87883,	-1.87410,	-1.83138,	-1.95655,	-2.04594,	-1.98650,	-1.98207,	-1.96926,	-1.97621,	-1.89904,	-1.85647,	-2.07220,	-2.21916,	-2.27836,	-2.30131,	-2.19735,	-2.07756,	-1.87677,	-1.73264,	-1.54249,	-1.18982,	-1.06375,	-0.95911,	-0.84054,	-0.67864,	-0.53229,	-0.52803,	-0.63038,	-0.64373,	-0.62873,	-0.43660,	-0.27489,	-0.15759,	-0.09921,	-0.09836,	-0.11113,	-0.02568,	0.22757,	0.38273,	0.43935,	0.39114,	0.42901,	0.49871,	0.31976,	0.06905,	-0.06801,	-0.10114,	-0.15172,	-0.24450,	-0.11773,	0.09038,	0.17591,	0.29925,	0.39097,	0.54122,	0.65294,	0.78012,	1.03926,	1.25133,	1.25454,	1.23249,	1.19269,	1.07105,	0.81422,	0.52431,	0.44233,	0.42379,	0.41518,	0.36898,	0.33473,	0.11611,	-0.26647,	-0.65059,	-0.93777,	-1.06600,	-1.16153,	-1.17629,	-1.13853,	-1.18351,	-1.14600,	-1.04661,	-0.94151,	-0.84569,	-0.75878,	-0.57127,	-0.54923,	-0.70630,	-0.86546,	-1.09625,	-1.13817,	-1.03415,	-0.94611,	-0.83597,	-0.82453,	-0.91354,	-0.90820,	-0.84437,	-0.57444,	-0.36125,	-0.27529,	-0.32986,	-0.24657,	-0.17689,	-0.20104,	-0.33979,	-0.41273,	-0.37225,	-0.58308,	-0.85142,	-0.90974,	-0.94958,	-1.06052,	-1.25413,	-1.34910,	-1.38407,	-1.51899,	-1.47750,	-1.39545,	-1.37463,	-1.32347,	-1.30158,	-1.11610,	-1.02515,	-1.11075,	-1.21991,	-1.19320,	-1.19979,	-1.08330,	-1.03445,	-0.88449,	-0.78610,	-0.80691,	-0.92806,	-0.99800,	-1.05888,	-1.04765,	-1.03921,	-1.06761,	-1.02650,	-0.99170,	-0.95228,	-0.91182,	-0.88856,	-0.74056,	-0.60939,	-0.45002,	-0.38040,	-0.48066,	-0.58507,	-0.63273,	-0.67560,	-0.64709,	-0.74851,	-0.85160,	-0.95549,	-0.96299,	-0.88378,	-0.61232,	-0.47046,	-0.29077,	-0.23965,	-0.02059,	0.28700,	0.56251,	0.67578,	0.90366,	1.12962,	1.14435,	1.07176,	1.03327,	1.06551,	0.89726,	0.63570,	0.56773,	0.53425,	0.47269,	0.47308,	0.49457,	0.54396,	0.42227,	0.38041,	0.42956,	0.32679,	0.26928,	0.17057,	0.17719,	0.15248,	0.13416,	0.00973,	-0.05346,	-0.27976,	-0.44420,	-0.61875,	-0.70122,	-0.67002,	-0.55098,	-0.63777,	-0.78069,	-0.95044,	-1.04681,	-1.10717,	-1.23729,	-1.23167,	-1.14478,	-1.13179
-0.27534,	-0.32355,	-0.19583,	-0.27640,	-0.39561,	-0.43453,	-0.31874,	-0.23579,	-0.35018,	-0.46083,	-0.51385,	-0.45625,	-0.15288,	0.14640,	0.40692,	0.68672,	0.83102,	0.84582,	0.93819,	0.96299,	0.85941,	0.74209,	0.61901,	0.69249,	0.80021,	0.87655,	0.73086,	0.66107,	0.84863,	0.89223,	0.94752,	1.01616,	1.23258,	1.41774,	1.67411,	1.77817,	1.90747,	1.93235,	2.00374,	2.11693,	2.17985,	2.22924,	2.33021,	2.57061,	2.85976,	2.92171,	2.78650,	2.74312,	2.67613,	2.49667,	2.54169,	2.63263,	2.64644,	2.55912,	2.37815,	2.31447,	2.28314,	2.39399,	2.42500,	2.36579,	2.31052,	2.10873,	2.00403,	1.76556,	1.47288,	1.21126,	1.17665,	1.03745,	0.77034,	0.45962,	0.17854,	-0.04919,	-0.18430,	-0.23660,	-0.25077,	-0.33629,	-0.48388,	-0.67752,	-0.91648,	-1.00786,	-1.01555,	-1.15777,	-1.22258,	-1.22073,	-1.18265,	-1.17423,	-1.28677,	-1.26145,	-1.20817,	-1.19897,	-1.28750,	-1.30249,	-1.05941,	-0.97376,	-0.96541,	-0.97253,	-0.96465,	-1.12748,	-1.20114,	-1.32354,	-1.47265,	-1.65777,	-1.77561,	-1.76676,	-1.81238,	-1.89717,	-1.97220,	-1.96026,	-1.94481,	-1.97080,	-2.03866,	-2.01870,	-1.90389,	-1.98120,	-2.02037,	-2.00665,	-2.05136,	-1.97090,	-1.86835,	-1.68594,	-1.51964,	-1.31188,	-1.09045,	-1.04780,	-0.90844,	-0.75365,	-0.54736,	-0.39647,	-0.41120,	-0.51296,	-0.51167,	-0.49045,	-0.37511,	-0.21478,	-0.01665,	0.09076,	0.02986,	-0.00121,	0.06717,	0.22123,	0.40139,	0.49707,	0.43144,	0.39277,	0.42541,	0.26983,	0.02286,	-0.08389,	-0.13267,	-0.18418,	-0.23943,	-0.11038,	0.13594,	0.29570,	0.34996,	0.33585,	0.48601,	0.57213,	0.67169,	0.89390,	1.05991,	1.05486,	1.06566,	1.09146,	0.96473,	0.75813,	0.56074,	0.49461,	0.36546,	0.24651,	0.22414,	0.17023,	0.05266,	-0.22640,	-0.62982,	-1.02785,	-1.22225,	-1.27026,	-1.25105,	-1.16051,	-1.21993,	-1.24192,	-1.15321,	-1.05050,	-0.89417,	-0.70135,	-0.52364,	-0.58099,	-0.70603,	-0.83822,	-1.05303,	-1.09989,	-1.01651,	-0.89543,	-0.70988,	-0.58846,	-0.67971,	-0.70568,	-0.64182,	-0.44094,	-0.32477,	-0.33777,	-0.34031,	-0.28642,	-0.17946,	-0.13972,	-0.30117,	-0.45155,	-0.44527,	-0.55611,	-0.74664,	-0.73780,	-0.77959,	-0.94359,	-1.13575,	-1.24063,	-1.23964,	-1.29859,	-1.27922,	-1.32299,	-1.31076,	-1.28310,	-1.29847,	-1.15180,	-1.10052,	-1.14368,	-1.20631,	-1.12114,	-1.19408,	-1.18786,	-1.10231,	-0.92753,	-0.83802,	-0.96387,	-1.07414,	-1.22566,	-1.29124,	-1.19806,	-1.17096,	-1.24099,	-1.21991,	-1.08970,	-0.97543,	-0.84143,	-0.79215,	-0.71334,	-0.61156,	-0.50837,	-0.46934,	-0.52890,	-0.64848,	-0.82747,	-0.84643,	-0.76677,	-0.82212,	-0.89243,	-1.03803,	-1.06254,	-1.00896,	-0.71781,	-0.57620,	-0.43925,	-0.29688,	-0.00749,	0.30190,	0.45243,	0.58766,	0.77455,	1.01471,	1.15534,	1.12199,	1.00114,	0.93941,	0.80360,	0.58064,	0.58136,	0.56213,	0.40877,	0.37074,	0.36379,	0.40063,	0.32070,	0.29236,	0.21910,	0.14576,	0.17465,	0.11205,	0.12861,	0.02578,	-0.02340,	-0.09487,	-0.03458,	-0.16699,	-0.34797,	-0.46337,	-0.49775,	-0.46199,	-0.44272,	-0.48127,	-0.63496,	-0.81292,	-0.83145,	-0.88030,	-1.07273,	-1.14710,	-1.03852,	-0.96327
-0.21609,	-0.22503,	-0.21412,	-0.33054,	-0.48023,	-0.46448,	-0.41620,	-0.34034,	-0.36544,	-0.33847,	-0.35796,	-0.26579,	-0.01658,	0.28054,	0.61136,	0.83150,	1.00709,	1.04817,	1.01197,	1.01544,	0.88348,	0.74753,	0.66880,	0.76629,	0.81807,	0.94935,	0.87304,	0.77859,	0.93292,	1.00936,	1.15106,	1.21062,	1.40627,	1.59962,	1.75316,	1.87113,	1.98958,	2.06359,	2.02992,	2.06890,	2.15563,	2.30813,	2.43207,	2.65267,	2.87839,	2.98034,	2.98528,	2.86798,	2.73059,	2.50983,	2.39535,	2.48453,	2.49212,	2.39191,	2.26436,	2.23089,	2.13818,	2.27859,	2.40396,	2.38904,	2.38299,	2.22067,	2.13173,	1.83662,	1.52236,	1.29496,	1.13324,	0.95401,	0.63335,	0.37496,	0.07611,	-0.17673,	-0.31539,	-0.32602,	-0.35388,	-0.43491,	-0.59400,	-0.77601,	-0.89791,	-1.05623,	-1.10466,	-1.15634,	-1.25431,	-1.19893,	-1.11533,	-1.11709,	-1.22463,	-1.22178,	-1.26214,	-1.18844,	-1.08780,	-1.02991,	-0.79590,	-0.70775,	-0.66188,	-0.70991,	-0.76527,	-0.94592,	-1.19884,	-1.38827,	-1.58077,	-1.69217,	-1.77152,	-1.79299,	-1.79147,	-1.71250,	-1.70279,	-1.71422,	-1.78675,	-1.91062,	-1.90808,	-1.92644,	-1.89593,	-1.89524,	-1.95148,	-1.90028,	-1.87791,	-1.81847,	-1.71186,	-1.51611,	-1.42106,	-1.24168,	-0.98063,	-0.94392,	-0.80454,	-0.61690,	-0.34834,	-0.21232,	-0.26974,	-0.33245,	-0.40571,	-0.40825,	-0.33591,	-0.15747,	0.06637,	0.15486,	0.13700,	0.20466,	0.29585,	0.35551,	0.44856,	0.48499,	0.52855,	0.50512,	0.44300,	0.32051,	-0.00933,	-0.19151,	-0.20746,	-0.21746,	-0.17771,	-0.00544,	0.15816,	0.29560,	0.44453,	0.46878,	0.59536,	0.62544,	0.67220,	0.80545,	0.86645,	0.88436,	0.85873,	0.84734,	0.74704,	0.65509,	0.55466,	0.44491,	0.29684,	0.21678,	0.24465,	0.15257,	-0.01192,	-0.32803,	-0.62034,	-0.96653,	-1.25796,	-1.29630,	-1.32332,	-1.28110,	-1.25798,	-1.27924,	-1.20604,	-1.10301,	-0.98944,	-0.80667,	-0.52664,	-0.51512,	-0.62376,	-0.73535,	-0.88195,	-0.91380,	-0.91585,	-0.81504,	-0.67225,	-0.58136,	-0.63841,	-0.63544,	-0.55984,	-0.50423,	-0.44149,	-0.38401,	-0.26877,	-0.19734,	-0.09042,	-0.09372,	-0.19486,	-0.29321,	-0.37915,	-0.41849,	-0.55291,	-0.62547,	-0.64526,	-0.81078,	-0.98592,	-1.05531,	-1.08273,	-1.21334,	-1.16571,	-1.17191,	-1.18829,	-1.18188,	-1.19212,	-1.09311,	-1.12223,	-1.12841,	-1.17262,	-1.16356,	-1.25809,	-1.29515,	-1.16013,	-1.06909,	-1.02560,	-1.09084,	-1.09578,	-1.24988,	-1.34229,	-1.34124,	-1.28734,	-1.24436,	-1.26709,	-1.11935,	-1.00049,	-0.97693,	-0.88688,	-0.79873,	-0.72229,	-0.64034,	-0.65503,	-0.78417,	-0.79993,	-0.84609,	-0.84399,	-0.77421,	-0.79311,	-0.81793,	-1.02002,	-1.07553,	-1.04916,	-0.88937,	-0.73414,	-0.57887,	-0.31339,	-0.03764,	0.25777,	0.45238,	0.65544,	0.80513,	1.01621,	1.14195,	1.18215,	1.15369,	0.97838,	0.81103,	0.63165,	0.54011,	0.54605,	0.37741,	0.28354,	0.27520,	0.28812,	0.14685,	0.19010,	0.21529,	0.18221,	0.24831,	0.21712,	0.24539,	0.04042,	-0.08083,	-0.11785,	-0.14549,	-0.25868,	-0.41355,	-0.40322,	-0.42776,	-0.41740,	-0.37389,	-0.30528,	-0.40477,	-0.56113,	-0.64206,	-0.71912,	-0.82199,	-0.95920,	-0.88784,	-0.75922
-0.08892,	-0.06964,	-0.23604,	-0.38283,	-0.53356,	-0.54474,	-0.49554,	-0.40222,	-0.35574,	-0.28874,	-0.18932,	-0.01870,	0.21564,	0.43505,	0.64531,	0.89763,	1.14204,	1.16422,	1.13846,	1.18559,	1.14687,	0.98134,	0.76938,	0.83145,	0.97433,	1.15165,	1.19499,	1.08795,	1.13209,	1.23295,	1.34080,	1.42136,	1.62424,	1.78358,	1.80391,	1.94353,	2.07567,	2.11551,	2.04328,	2.02090,	2.09119,	2.24771,	2.49867,	2.74161,	2.93373,	3.00059,	2.95096,	2.87958,	2.80010,	2.54900,	2.38553,	2.44599,	2.46072,	2.32552,	2.14359,	2.12476,	2.13232,	2.24217,	2.39695,	2.40657,	2.40056,	2.30223,	2.12048,	1.80200,	1.56297,	1.38315,	1.06908,	0.83367,	0.51767,	0.21634,	-0.06174,	-0.25125,	-0.40214,	-0.54271,	-0.62631,	-0.68426,	-0.78006,	-0.89939,	-0.98105,	-1.04874,	-1.02363,	-1.08983,	-1.20618,	-1.14743,	-0.98152,	-0.93799,	-1.10947,	-1.20576,	-1.24119,	-1.14393,	-0.94996,	-0.87260,	-0.75537,	-0.64855,	-0.60999,	-0.64499,	-0.65728,	-0.79692,	-1.20370,	-1.48827,	-1.67653,	-1.77436,	-1.77465,	-1.73890,	-1.69344,	-1.63745,	-1.58732,	-1.53148,	-1.57039,	-1.66487,	-1.70120,	-1.73955,	-1.75892,	-1.82765,	-1.86772,	-1.76992,	-1.66746,	-1.62452,	-1.64228,	-1.53316,	-1.36404,	-1.16686,	-0.92700,	-0.89846,	-0.79568,	-0.52776,	-0.24173,	-0.11082,	-0.10103,	-0.09449,	-0.21228,	-0.21798,	-0.14168,	-0.07664,	0.05197,	0.17294,	0.22320,	0.28086,	0.39881,	0.49488,	0.53613,	0.54778,	0.55363,	0.53322,	0.52912,	0.42471,	0.10133,	-0.11560,	-0.11653,	-0.06094,	-0.05873,	-0.01207,	0.11834,	0.30216,	0.52625,	0.60864,	0.66331,	0.69675,	0.68725,	0.68571,	0.70376,	0.78507,	0.76067,	0.69331,	0.63335,	0.49679,	0.38308,	0.33662,	0.25498,	0.18524,	0.19537,	0.11848,	-0.13675,	-0.44368,	-0.66043,	-0.92973,	-1.14086,	-1.23016,	-1.31372,	-1.25975,	-1.14244,	-1.10522,	-1.15568,	-1.23207,	-1.11928,	-0.84921,	-0.53558,	-0.47526,	-0.61831,	-0.70678,	-0.75186,	-0.77404,	-0.80417,	-0.76219,	-0.73840,	-0.72091,	-0.68401,	-0.68175,	-0.61362,	-0.54605,	-0.50837,	-0.46433,	-0.35583,	-0.19159,	-0.05287,	0.02362,	-0.00762,	-0.11617,	-0.16457,	-0.18955,	-0.34936,	-0.49194,	-0.55158,	-0.64315,	-0.82382,	-1.01371,	-1.05956,	-1.08858,	-1.04717,	-1.05569,	-1.16177,	-1.15961,	-1.08540,	-1.06596,	-1.12802,	-1.13745,	-1.19535,	-1.25513,	-1.26602,	-1.29692,	-1.20818,	-1.14632,	-1.18031,	-1.22818,	-1.18593,	-1.21379,	-1.30569,	-1.35500,	-1.32618,	-1.28391,	-1.21879,	-1.09328,	-1.09046,	-1.14855,	-1.04214,	-0.85598,	-0.82183,	-0.91841,	-0.99105,	-1.00710,	-0.89349,	-0.78211,	-0.81875,	-0.85792,	-0.85323,	-0.88757,	-1.04035,	-1.04290,	-0.96620,	-0.89371,	-0.71085,	-0.55254,	-0.33302,	-0.05474,	0.24122,	0.48905,	0.67620,	0.84170,	1.02739,	1.17568,	1.25928,	1.17747,	1.00681,	0.87935,	0.70768,	0.59297,	0.60261,	0.54396,	0.41266,	0.21804,	0.13938,	0.14515,	0.29797,	0.40663,	0.32889,	0.27211,	0.27680,	0.26692,	0.08066,	-0.00668,	-0.02573,	-0.20664,	-0.37309,	-0.47595,	-0.42839,	-0.39668,	-0.38979,	-0.36483,	-0.33059,	-0.31873,	-0.38404,	-0.47046,	-0.56529,	-0.70499,	-0.76437,	-0.61988,	-0.51836
-0.03959,	0.03546,	-0.11142,	-0.21798,	-0.36989,	-0.40791,	-0.29130,	-0.17335,	-0.12644,	-0.07434,	0.03904,	0.20056,	0.32962,	0.48955,	0.61735,	0.89204,	1.12982,	1.13484,	1.24057,	1.31726,	1.25798,	1.12037,	1.01238,	0.98967,	1.13807,	1.33325,	1.36138,	1.26073,	1.31915,	1.48027,	1.53522,	1.60256,	1.69298,	1.85225,	1.90870,	2.08831,	2.18404,	2.19773,	2.22324,	2.20130,	2.19133,	2.25611,	2.48005,	2.69540,	2.78489,	2.78952,	2.68356,	2.66481,	2.62201,	2.38073,	2.32884,	2.38475,	2.34057,	2.24295,	2.25968,	2.23844,	2.24982,	2.31072,	2.34443,	2.31816,	2.34291,	2.33046,	2.10535,	1.80808,	1.55688,	1.45031,	1.18546,	0.97180,	0.64406,	0.25965,	0.01845,	-0.13491,	-0.37448,	-0.66551,	-0.86515,	-0.94746,	-1.06200,	-1.12782,	-1.15375,	-1.12210,	-1.06076,	-1.17988,	-1.23844,	-1.19222,	-1.09099,	-1.03023,	-1.01560,	-1.14909,	-1.25351,	-1.18086,	-1.08927,	-1.06874,	-0.97478,	-0.77952,	-0.72031,	-0.72764,	-0.79083,	-0.83024,	-1.10268,	-1.34152,	-1.53006,	-1.71118,	-1.67493,	-1.56366,	-1.53400,	-1.57747,	-1.57692,	-1.48542,	-1.51406,	-1.53905,	-1.55881,	-1.58317,	-1.62348,	-1.76910,	-1.73765,	-1.60242,	-1.56652,	-1.58398,	-1.50267,	-1.41639,	-1.29620,	-1.10947,	-0.97020,	-0.96621,	-0.79129,	-0.35986,	-0.02153,	0.13064,	0.11722,	0.15136,	0.12607,	0.17583,	0.23962,	0.16136,	0.20611,	0.36524,	0.40260,	0.37080,	0.42858,	0.50684,	0.45649,	0.42751,	0.40506,	0.39545,	0.44538,	0.33469,	0.11967,	-0.03545,	-0.10704,	-0.08844,	0.00143,	0.03119,	0.06387,	0.26056,	0.45589,	0.50303,	0.55526,	0.75068,	0.81637,	0.74490,	0.64470,	0.65803,	0.69493,	0.67726,	0.63912,	0.36556,	0.20756,	0.25942,	0.22413,	0.13264,	0.08356,	-0.01436,	-0.32421,	-0.59686,	-0.71536,	-0.88624,	-1.00113,	-1.14736,	-1.20821,	-1.07663,	-0.99848,	-1.01675,	-1.03844,	-1.10276,	-1.05551,	-0.76983,	-0.51792,	-0.53217,	-0.68009,	-0.66150,	-0.60619,	-0.64281,	-0.75280,	-0.83149,	-0.81726,	-0.75437,	-0.63717,	-0.69436,	-0.64773,	-0.50452,	-0.49631,	-0.52846,	-0.48935,	-0.31429,	-0.17366,	-0.05446,	0.01613,	-0.05902,	-0.06130,	-0.15404,	-0.35695,	-0.47575,	-0.62153,	-0.75335,	-0.85351,	-0.96525,	-1.07860,	-1.00395,	-0.94041,	-1.04936,	-1.22603,	-1.18127,	-1.02884,	-1.05402,	-1.17642,	-1.32000,	-1.33612,	-1.30557,	-1.19445,	-1.22974,	-1.18963,	-1.07006,	-1.11014,	-1.15972,	-1.11397,	-1.09630,	-1.20076,	-1.32339,	-1.30135,	-1.28245,	-1.19668,	-1.17593,	-1.27669,	-1.27965,	-1.17900,	-1.02657,	-0.96731,	-0.98765,	-1.14133,	-1.11478,	-0.94290,	-0.86455,	-0.93881,	-0.95788,	-0.88339,	-0.91872,	-1.03391,	-1.09313,	-0.91719,	-0.74781,	-0.50306,	-0.39350,	-0.28306,	0.01346,	0.29358,	0.51404,	0.65482,	0.78181,	0.93172,	1.02273,	1.12979,	1.04157,	0.92455,	0.81245,	0.64262,	0.62020,	0.63780,	0.62883,	0.56447,	0.46362,	0.27222,	0.27761,	0.46133,	0.49734,	0.33814,	0.22178,	0.28189,	0.24977,	0.10423,	-0.04372,	-0.02371,	-0.15123,	-0.26354,	-0.32573,	-0.30772,	-0.20953,	-0.19783,	-0.24439,	-0.28295,	-0.27112,	-0.30920,	-0.44165,	-0.50339,	-0.58861,	-0.51053,	-0.31239,	-0.25016
0.11770,	0.15320,	0.08345,	-0.03046,	-0.17774,	-0.16491,	0.01727,	0.13141,	0.18725,	0.24911,	0.36406,	0.49461,	0.52902,	0.61406,	0.76394,	1.05142,	1.18867,	1.18615,	1.25903,	1.34402,	1.35451,	1.22506,	1.19192,	1.17338,	1.23227,	1.36627,	1.42119,	1.37595,	1.49623,	1.66261,	1.72953,	1.83879,	1.93332,	2.02799,	2.12209,	2.24313,	2.25486,	2.30370,	2.44407,	2.41376,	2.34442,	2.31531,	2.44736,	2.63445,	2.67003,	2.60296,	2.51221,	2.51871,	2.38313,	2.13408,	2.07065,	2.16290,	2.26175,	2.24746,	2.36845,	2.37322,	2.29691,	2.25438,	2.25214,	2.22932,	2.26937,	2.24118,	2.03286,	1.81651,	1.66174,	1.55300,	1.37321,	1.16316,	0.78147,	0.38982,	0.18253,	-0.03690,	-0.36571,	-0.69811,	-0.91925,	-0.98398,	-1.09801,	-1.19979,	-1.21914,	-1.17139,	-1.20488,	-1.36362,	-1.46717,	-1.44259,	-1.28853,	-1.23268,	-1.15367,	-1.25299,	-1.43052,	-1.44940,	-1.38531,	-1.32711,	-1.17145,	-0.96147,	-0.89651,	-0.86054,	-0.85568,	-0.85328,	-0.96041,	-1.13844,	-1.38537,	-1.63196,	-1.59956,	-1.49292,	-1.48367,	-1.51996,	-1.50360,	-1.36821,	-1.37350,	-1.42814,	-1.43326,	-1.40128,	-1.47151,	-1.63512,	-1.65276,	-1.56837,	-1.49982,	-1.52721,	-1.40958,	-1.29980,	-1.26503,	-1.18340,	-1.06394,	-0.96733,	-0.66112,	-0.16270,	0.20344,	0.41837,	0.48843,	0.50199,	0.51452,	0.55436,	0.52206,	0.41209,	0.48553,	0.63146,	0.59806,	0.50460,	0.47524,	0.49072,	0.40048,	0.30267,	0.25984,	0.30462,	0.32663,	0.18101,	-0.01584,	-0.15964,	-0.16228,	-0.11925,	-0.00344,	0.07256,	0.05800,	0.15064,	0.29825,	0.38597,	0.50365,	0.79252,	0.92122,	0.87295,	0.77562,	0.65691,	0.63428,	0.63864,	0.53856,	0.23871,	0.11957,	0.19235,	0.11443,	-0.00225,	-0.07464,	-0.14268,	-0.35972,	-0.58124,	-0.66301,	-0.73019,	-0.82081,	-1.00629,	-1.04566,	-0.93282,	-0.83695,	-0.84654,	-0.87681,	-0.89292,	-0.88476,	-0.73795,	-0.57818,	-0.57241,	-0.66973,	-0.61198,	-0.57131,	-0.61926,	-0.69992,	-0.80458,	-0.79504,	-0.67466,	-0.60459,	-0.70021,	-0.66198,	-0.53151,	-0.57989,	-0.63148,	-0.59602,	-0.38726,	-0.20540,	-0.09962,	-0.02631,	-0.03072,	-0.03584,	-0.23047,	-0.45807,	-0.61680,	-0.73255,	-0.81790,	-0.91950,	-0.96901,	-1.08487,	-1.03793,	-0.96397,	-1.03284,	-1.19869,	-1.19227,	-1.10288,	-1.12176,	-1.19804,	-1.35126,	-1.38418,	-1.28406,	-1.21052,	-1.28179,	-1.21628,	-1.02679,	-1.02032,	-1.01182,	-0.94527,	-0.89447,	-0.96229,	-1.11192,	-1.13616,	-1.12398,	-1.10826,	-1.25802,	-1.41659,	-1.45289,	-1.31137,	-1.10542,	-1.05630,	-1.01012,	-1.15742,	-1.21047,	-1.09907,	-1.01562,	-1.04497,	-0.98718,	-0.88585,	-0.87931,	-0.92173,	-0.95906,	-0.83103,	-0.60740,	-0.39083,	-0.33523,	-0.23577,	0.07734,	0.29012,	0.45288,	0.56709,	0.69721,	0.87443,	0.95724,	1.05215,	1.03621,	0.98224,	0.80335,	0.63614,	0.58911,	0.64550,	0.78935,	0.78857,	0.76586,	0.55100,	0.39581,	0.45916,	0.48831,	0.35342,	0.26792,	0.29955,	0.24328,	0.11563,	-0.02274,	-0.05303,	-0.08284,	-0.13127,	-0.18765,	-0.16576,	-0.02813,	-0.05689,	-0.14717,	-0.19177,	-0.18018,	-0.19715,	-0.31393,	-0.36143,	-0.33204,	-0.12846,	0.02606,	0.08183
0.24865,	0.23240,	0.19456,	0.07926,	0.00970,	0.02473,	0.18471,	0.31149,	0.48039,	0.55116,	0.58904,	0.67009,	0.64161,	0.65619,	0.79396,	1.16545,	1.38228,	1.41451,	1.50834,	1.53830,	1.49367,	1.32358,	1.26839,	1.28666,	1.45324,	1.50681,	1.59247,	1.60021,	1.66073,	1.84312,	1.95168,	2.14352,	2.21308,	2.16701,	2.21627,	2.27793,	2.33199,	2.41456,	2.60276,	2.55514,	2.50196,	2.41958,	2.39160,	2.52135,	2.51637,	2.39440,	2.29592,	2.35222,	2.27378,	2.00762,	1.93885,	2.02094,	2.15473,	2.19688,	2.33156,	2.35503,	2.37195,	2.21500,	2.17804,	2.19287,	2.17882,	2.13891,	1.91492,	1.77104,	1.65734,	1.47084,	1.32636,	1.17781,	0.94121,	0.58131,	0.31680,	-0.04621,	-0.41499,	-0.73437,	-0.98929,	-1.00229,	-1.06197,	-1.20827,	-1.32928,	-1.33202,	-1.36074,	-1.54028,	-1.64452,	-1.63539,	-1.50649,	-1.50118,	-1.45400,	-1.53161,	-1.57261,	-1.60105,	-1.50203,	-1.35947,	-1.26669,	-1.12602,	-1.12301,	-1.04184,	-0.96063,	-0.96060,	-0.94890,	-1.06155,	-1.22523,	-1.46659,	-1.51981,	-1.51704,	-1.52469,	-1.49176,	-1.46166,	-1.28722,	-1.23692,	-1.36709,	-1.48356,	-1.44607,	-1.41669,	-1.50080,	-1.49374,	-1.43326,	-1.41192,	-1.51317,	-1.44400,	-1.31690,	-1.12929,	-1.04558,	-0.95462,	-0.76463,	-0.48390,	-0.03592,	0.30469,	0.62337,	0.83689,	0.78612,	0.74352,	0.70767,	0.67639,	0.61989,	0.70708,	0.81185,	0.75498,	0.66178,	0.49678,	0.39357,	0.28792,	0.12382,	-0.00400,	0.06560,	0.16703,	0.06369,	-0.08303,	-0.18095,	-0.16316,	-0.11561,	0.00663,	0.08503,	0.14485,	0.19008,	0.23471,	0.38615,	0.49880,	0.79289,	0.97321,	0.97783,	0.95451,	0.70925,	0.55128,	0.50087,	0.39294,	0.19039,	0.11862,	0.14707,	0.02806,	-0.10861,	-0.28072,	-0.38041,	-0.47359,	-0.61240,	-0.71132,	-0.73426,	-0.73886,	-0.87001,	-0.85697,	-0.68219,	-0.55062,	-0.59374,	-0.69256,	-0.75554,	-0.73215,	-0.62993,	-0.59958,	-0.50078,	-0.55704,	-0.58247,	-0.62783,	-0.73665,	-0.74501,	-0.86348,	-0.86332,	-0.68896,	-0.59425,	-0.61232,	-0.62311,	-0.61253,	-0.72196,	-0.73627,	-0.72486,	-0.52801,	-0.28632,	-0.19629,	-0.19259,	-0.20610,	-0.15794,	-0.28159,	-0.45341,	-0.57860,	-0.70436,	-0.85672,	-1.02728,	-1.08675,	-1.11776,	-0.92979,	-0.85508,	-0.83291,	-0.97113,	-1.09400,	-1.11689,	-1.18791,	-1.19669,	-1.33222,	-1.39651,	-1.28195,	-1.23881,	-1.28417,	-1.26093,	-1.11527,	-1.07604,	-0.93169,	-0.84965,	-0.82323,	-0.84994,	-1.01008,	-1.10833,	-1.12652,	-1.06943,	-1.20595,	-1.39130,	-1.42235,	-1.30912,	-1.16667,	-1.16146,	-1.07381,	-1.12304,	-1.08435,	-1.11227,	-1.05628,	-1.04893,	-1.02326,	-0.89202,	-0.84523,	-0.76809,	-0.78364,	-0.77940,	-0.60618,	-0.42563,	-0.30127,	-0.20513,	0.06430,	0.19991,	0.36305,	0.45521,	0.54045,	0.77024,	0.92502,	1.02257,	0.99381,	0.99419,	0.85609,	0.69290,	0.68967,	0.78132,	0.98931,	1.02777,	1.01324,	0.83602,	0.73676,	0.63196,	0.61664,	0.51519,	0.39425,	0.40861,	0.30184,	0.19820,	0.01270,	-0.16493,	-0.19667,	-0.18956,	-0.09666,	-0.05557,	0.04349,	-0.07470,	-0.16757,	-0.19876,	-0.20045,	-0.13876,	-0.19068,	-0.25524,	-0.23874,	0.03189,	0.26008,	0.35873
0.25918,	0.33929,	0.31285,	0.19902,	0.20144,	0.20067,	0.27224,	0.47391,	0.77041,	0.82134,	0.80902,	0.79141,	0.68452,	0.76694,	0.96882,	1.31770,	1.62697,	1.73681,	1.82681,	1.79066,	1.63271,	1.47199,	1.50515,	1.56137,	1.73425,	1.78487,	1.85094,	1.86864,	1.90940,	2.09529,	2.37689,	2.52533,	2.41875,	2.38004,	2.41996,	2.44597,	2.54342,	2.59400,	2.66584,	2.63406,	2.67735,	2.62267,	2.54738,	2.53043,	2.33683,	2.23716,	2.24765,	2.28637,	2.30668,	2.09334,	1.94437,	1.90645,	1.89709,	1.95859,	2.20175,	2.26886,	2.27803,	2.08479,	1.99334,	1.99554,	1.98831,	1.92630,	1.83174,	1.69625,	1.43819,	1.29065,	1.20097,	1.10928,	1.02329,	0.70718,	0.32929,	-0.07579,	-0.34797,	-0.64882,	-0.89588,	-0.94865,	-1.11049,	-1.22769,	-1.28826,	-1.35962,	-1.38482,	-1.54755,	-1.70325,	-1.77307,	-1.76213,	-1.77745,	-1.64503,	-1.65142,	-1.65845,	-1.64192,	-1.51246,	-1.37747,	-1.32506,	-1.26932,	-1.16403,	-1.04474,	-1.09774,	-1.08034,	-1.00343,	-1.09051,	-1.12844,	-1.24036,	-1.37293,	-1.46557,	-1.44936,	-1.38226,	-1.28700,	-1.11002,	-1.11689,	-1.25178,	-1.36364,	-1.41058,	-1.38718,	-1.39167,	-1.38876,	-1.40222,	-1.50278,	-1.65258,	-1.51992,	-1.30081,	-1.03424,	-0.91052,	-0.81770,	-0.62279,	-0.36287,	-0.00928,	0.39396,	0.81820,	0.95545,	0.90317,	0.88408,	0.80207,	0.83963,	0.87570,	0.92515,	0.96909,	0.96755,	0.88141,	0.67330,	0.48700,	0.23827,	0.02220,	-0.06146,	0.00072,	0.13079,	0.12107,	0.00494,	-0.12112,	-0.17286,	-0.12927,	0.08055,	0.21586,	0.25735,	0.26194,	0.28729,	0.42804,	0.53391,	0.73663,	0.95823,	1.06735,	0.98290,	0.76908,	0.63501,	0.47707,	0.33752,	0.24809,	0.20829,	0.19215,	0.16006,	0.02144,	-0.24767,	-0.43034,	-0.62258,	-0.75400,	-0.75604,	-0.74060,	-0.71660,	-0.73802,	-0.67930,	-0.50924,	-0.40174,	-0.49235,	-0.57036,	-0.58906,	-0.61985,	-0.61642,	-0.66071,	-0.56526,	-0.59459,	-0.70981,	-0.79002,	-0.81169,	-0.86335,	-0.97808,	-0.87372,	-0.70811,	-0.58738,	-0.49095,	-0.50703,	-0.58903,	-0.65640,	-0.62960,	-0.63845,	-0.44640,	-0.27438,	-0.25339,	-0.21103,	-0.21725,	-0.19176,	-0.19852,	-0.31701,	-0.49740,	-0.70876,	-0.95142,	-1.07813,	-1.02784,	-1.02267,	-0.85693,	-0.78456,	-0.74743,	-0.80924,	-0.92444,	-1.00148,	-1.03399,	-1.15706,	-1.33254,	-1.28075,	-1.17120,	-1.11381,	-1.10617,	-1.15346,	-1.14929,	-1.08350,	-0.83690,	-0.75331,	-0.72030,	-0.80157,	-1.04400,	-1.10658,	-1.07813,	-1.02519,	-1.09164,	-1.27073,	-1.36444,	-1.35789,	-1.36023,	-1.34758,	-1.11167,	-1.07971,	-1.05812,	-1.14029,	-1.11836,	-1.06243,	-1.02551,	-0.89611,	-0.70775,	-0.63518,	-0.71483,	-0.63603,	-0.48378,	-0.33260,	-0.13549,	-0.02963,	0.15178,	0.29240,	0.50159,	0.55650,	0.63253,	0.82383,	0.93178,	1.09371,	1.10873,	1.07107,	1.00967,	0.91318,	0.90062,	0.93730,	1.02366,	1.07493,	1.19298,	1.14542,	1.10221,	0.92978,	0.80104,	0.65777,	0.55369,	0.54920,	0.55756,	0.44333,	0.07100,	-0.14439,	-0.22908,	-0.25979,	-0.06192,	0.01241,	0.02499,	-0.10978,	-0.14284,	-0.18752,	-0.15162,	-0.06701,	-0.18885,	-0.21255,	-0.11928,	0.11808,	0.39539,	0.56606
0.37228,	0.51540,	0.42751,	0.28081,	0.32130,	0.38580,	0.46375,	0.68238,	0.89046,	0.88251,	0.90866,	0.90992,	0.95695,	1.12536,	1.25994,	1.45739,	1.65371,	1.82634,	1.98284,	1.98892,	1.96689,	1.80335,	1.75400,	1.83648,	1.97441,	2.02525,	2.12126,	2.18090,	2.29030,	2.39001,	2.60743,	2.67087,	2.63708,	2.72116,	2.76948,	2.73700,	2.76028,	2.74421,	2.69290,	2.64433,	2.64956,	2.59553,	2.57878,	2.48374,	2.29193,	2.22784,	2.21049,	2.17485,	2.16111,	2.05440,	1.92679,	1.79065,	1.79319,	1.81290,	1.95596,	2.05337,	2.05619,	1.85745,	1.76521,	1.74824,	1.76263,	1.59758,	1.48293,	1.36579,	1.26000,	1.29044,	1.22911,	1.08634,	0.94418,	0.65916,	0.28974,	-0.02756,	-0.24436,	-0.58087,	-0.81018,	-0.95274,	-1.11923,	-1.15763,	-1.19163,	-1.29690,	-1.42634,	-1.59696,	-1.75039,	-1.89220,	-1.81401,	-1.78454,	-1.72316,	-1.69235,	-1.69062,	-1.69251,	-1.58237,	-1.47380,	-1.35834,	-1.33812,	-1.21040,	-1.09017,	-1.09715,	-1.02030,	-1.00795,	-1.17120,	-1.22765,	-1.21484,	-1.29446,	-1.38230,	-1.39773,	-1.40567,	-1.25789,	-1.06660,	-0.98782,	-0.96673,	-1.06668,	-1.23041,	-1.38073,	-1.43030,	-1.41316,	-1.49158,	-1.52682,	-1.59918,	-1.53856,	-1.32128,	-1.06454,	-0.95759,	-0.81970,	-0.55916,	-0.17438,	0.12952,	0.45688,	0.82590,	0.95946,	1.03937,	1.08233,	1.00243,	1.04484,	1.12318,	1.15050,	1.13011,	1.09244,	0.92467,	0.76176,	0.61008,	0.34274,	0.18582,	0.09719,	0.07026,	0.10598,	0.11278,	0.06959,	-0.08000,	-0.09211,	0.00554,	0.09503,	0.17462,	0.22054,	0.23730,	0.34520,	0.52327,	0.68258,	0.75921,	0.82311,	0.90575,	0.87045,	0.88599,	0.84107,	0.56809,	0.30861,	0.22027,	0.20775,	0.20932,	0.25662,	0.09011,	-0.19289,	-0.39503,	-0.65640,	-0.71130,	-0.66261,	-0.68746,	-0.70594,	-0.70518,	-0.57751,	-0.45039,	-0.36561,	-0.38750,	-0.52790,	-0.57268,	-0.58465,	-0.66626,	-0.76448,	-0.72180,	-0.74728,	-0.90202,	-1.04956,	-0.99929,	-0.96842,	-0.89252,	-0.72086,	-0.69111,	-0.66709,	-0.54347,	-0.46067,	-0.46050,	-0.46551,	-0.50320,	-0.52662,	-0.30709,	-0.17282,	-0.07221,	-0.00488,	-0.09795,	-0.17567,	-0.24718,	-0.35231,	-0.56547,	-0.77117,	-0.84708,	-0.92623,	-0.89492,	-0.86533,	-0.82593,	-0.82628,	-0.77306,	-0.73696,	-0.75421,	-0.90261,	-0.99054,	-1.18412,	-1.24197,	-1.09417,	-1.04948,	-1.00602,	-0.96278,	-0.98621,	-1.00885,	-0.95063,	-0.78188,	-0.72053,	-0.62689,	-0.70432,	-0.84428,	-0.86646,	-0.94025,	-1.03515,	-1.20489,	-1.35083,	-1.42000,	-1.41989,	-1.33478,	-1.34981,	-1.20801,	-1.15653,	-1.17462,	-1.23837,	-1.12843,	-0.98429,	-0.89361,	-0.88805,	-0.77095,	-0.72229,	-0.63319,	-0.36028,	-0.19733,	-0.10822,	0.05419,	0.19661,	0.38289,	0.55443,	0.69785,	0.68435,	0.78292,	0.92254,	1.05795,	1.23137,	1.18884,	1.09257,	1.03225,	1.05765,	1.08320,	1.05422,	1.14262,	1.14162,	1.20322,	1.27134,	1.29471,	1.12338,	0.96611,	0.79272,	0.72903,	0.63262,	0.61421,	0.52055,	0.26773,	0.13400,	-0.03851,	-0.20937,	-0.09385,	0.01055,	0.04033,	-0.03419,	-0.08526,	-0.19190,	-0.13738,	-0.10315,	-0.17946,	-0.11024,	0.01529,	0.21495,	0.40734,	0.60304
0.55020,	0.59465,	0.41326,	0.32771,	0.41172,	0.56144,	0.78724,	0.94125,	0.99700,	1.01225,	0.99196,	1.12220,	1.34385,	1.50648,	1.48136,	1.55839,	1.66944,	1.82151,	2.05055,	2.18208,	2.26301,	2.08588,	1.92311,	1.99473,	2.20980,	2.29793,	2.38700,	2.45023,	2.56698,	2.70020,	2.80394,	2.79518,	2.84643,	2.95809,	2.96764,	2.96442,	2.91453,	2.82047,	2.77947,	2.67245,	2.56010,	2.54313,	2.45566,	2.36942,	2.26901,	2.17877,	2.02093,	1.95081,	1.96314,	1.92066,	1.83803,	1.69913,	1.70172,	1.65313,	1.65473,	1.73029,	1.84138,	1.71159,	1.59329,	1.51599,	1.42945,	1.27780,	1.15470,	1.07190,	1.16652,	1.29836,	1.18788,	1.03635,	0.80884,	0.51350,	0.29551,	0.08970,	-0.15051,	-0.43948,	-0.76291,	-0.98985,	-1.10871,	-1.14522,	-1.25878,	-1.35527,	-1.49749,	-1.70774,	-1.85869,	-1.96121,	-1.80592,	-1.74799,	-1.76874,	-1.75058,	-1.65697,	-1.62588,	-1.58788,	-1.53215,	-1.44693,	-1.33407,	-1.15182,	-1.06121,	-1.00633,	-0.96841,	-1.14713,	-1.34645,	-1.42783,	-1.39531,	-1.32901,	-1.34132,	-1.43149,	-1.43333,	-1.33805,	-1.16285,	-0.93176,	-0.78708,	-0.92976,	-1.15326,	-1.35027,	-1.46482,	-1.47678,	-1.53336,	-1.47690,	-1.49430,	-1.51285,	-1.36825,	-1.09368,	-0.91952,	-0.73957,	-0.42289,	0.00337,	0.36301,	0.66915,	0.89536,	1.01650,	1.15113,	1.16329,	1.16656,	1.25162,	1.29700,	1.35142,	1.31849,	1.16230,	0.99046,	0.84797,	0.69851,	0.50764,	0.36247,	0.16851,	0.05080,	0.07201,	0.07849,	0.05355,	-0.05145,	-0.00950,	0.06032,	-0.00075,	-0.01579,	0.09804,	0.26371,	0.46529,	0.65605,	0.77757,	0.80556,	0.80154,	0.79765,	0.81886,	0.94901,	0.86746,	0.55642,	0.26262,	0.08730,	0.10307,	0.19153,	0.22601,	0.11596,	-0.12734,	-0.38557,	-0.57974,	-0.58211,	-0.58446,	-0.67589,	-0.66004,	-0.64450,	-0.53132,	-0.42653,	-0.36858,	-0.38645,	-0.57639,	-0.66162,	-0.59751,	-0.60728,	-0.73953,	-0.82186,	-0.95357,	-1.10246,	-1.16796,	-1.07731,	-0.94606,	-0.76215,	-0.68438,	-0.79755,	-0.81782,	-0.73826,	-0.53366,	-0.31390,	-0.30986,	-0.37442,	-0.37103,	-0.24169,	-0.06889,	0.08828,	0.08641,	-0.13453,	-0.23645,	-0.35470,	-0.50001,	-0.66488,	-0.77732,	-0.71465,	-0.73571,	-0.75706,	-0.70382,	-0.65232,	-0.71571,	-0.71281,	-0.69046,	-0.67059,	-0.76044,	-0.92503,	-1.15166,	-1.17169,	-1.09769,	-1.14111,	-1.03513,	-0.95779,	-0.90743,	-0.77622,	-0.73740,	-0.64775,	-0.55875,	-0.54188,	-0.53096,	-0.55543,	-0.62148,	-0.88590,	-1.09628,	-1.32317,	-1.47458,	-1.45716,	-1.35803,	-1.20547,	-1.24831,	-1.26703,	-1.23957,	-1.15435,	-1.14263,	-0.99379,	-0.85357,	-0.80007,	-0.81873,	-0.83057,	-0.80457,	-0.57715,	-0.22499,	-0.07419,	0.04251,	0.16093,	0.33688,	0.67930,	0.86168,	0.91199,	0.90291,	0.87346,	0.98969,	1.14099,	1.23378,	1.06847,	0.98816,	1.00957,	1.10609,	1.17658,	1.16533,	1.23704,	1.17408,	1.14697,	1.25924,	1.43353,	1.33261,	1.14523,	0.91677,	0.77902,	0.69969,	0.64020,	0.57483,	0.48284,	0.35982,	0.06452,	-0.14019,	-0.11422,	-0.02929,	0.14783,	0.14971,	0.04195,	-0.03568,	-0.11477,	-0.14341,	-0.13425,	-0.03950,	0.03139,	0.24205,	0.42907,	0.58714
0.54473,	0.60430,	0.53257,	0.55497,	0.67162,	0.80553,	0.93772,	0.99890,	1.02987,	1.18917,	1.28716,	1.55349,	1.69867,	1.82720,	1.80943,	1.78651,	1.82535,	1.93346,	2.13425,	2.34754,	2.38890,	2.21619,	2.14320,	2.20458,	2.33096,	2.45876,	2.54761,	2.58443,	2.67393,	2.88299,	2.98038,	2.93044,	2.95071,	3.06912,	3.13497,	3.20040,	3.17361,	3.01116,	2.74461,	2.53182,	2.40455,	2.48619,	2.43399,	2.38231,	2.21532,	2.12126,	2.00296,	1.88776,	1.87794,	1.87649,	1.76333,	1.60813,	1.52819,	1.42146,	1.43076,	1.45517,	1.49875,	1.44517,	1.31284,	1.16983,	1.02619,	1.02416,	1.00678,	0.93208,	1.00497,	1.16053,	1.13121,	0.99217,	0.75753,	0.49872,	0.25942,	0.08743,	-0.14523,	-0.34416,	-0.66534,	-0.92026,	-1.14511,	-1.24195,	-1.28206,	-1.34292,	-1.50620,	-1.74334,	-1.92877,	-1.95708,	-1.80676,	-1.74166,	-1.66810,	-1.63161,	-1.62835,	-1.59451,	-1.54575,	-1.48014,	-1.43075,	-1.24301,	-1.01767,	-0.98765,	-1.00354,	-1.04413,	-1.29923,	-1.48679,	-1.53261,	-1.47132,	-1.45292,	-1.49238,	-1.54973,	-1.43097,	-1.31612,	-1.16103,	-0.97972,	-0.81348,	-0.83066,	-1.01554,	-1.19408,	-1.33448,	-1.46260,	-1.54007,	-1.47261,	-1.47999,	-1.44157,	-1.29684,	-1.08911,	-0.82128,	-0.53465,	-0.18110,	0.17662,	0.56119,	0.89160,	0.94516,	0.94545,	1.11766,	1.25972,	1.41612,	1.54351,	1.55042,	1.46610,	1.30531,	1.12719,	1.06220,	1.02183,	0.92010,	0.67903,	0.41848,	0.25702,	0.17565,	0.17977,	0.18498,	0.10948,	-0.01601,	-0.02033,	-0.05549,	-0.07169,	-0.00093,	0.08266,	0.26180,	0.51598,	0.72212,	0.80495,	0.81264,	0.79198,	0.70260,	0.67664,	0.83960,	0.82031,	0.58536,	0.34405,	0.13885,	0.02822,	-0.03204,	-0.00834,	0.05110,	-0.05163,	-0.26102,	-0.40850,	-0.49847,	-0.50322,	-0.56342,	-0.52747,	-0.50760,	-0.49398,	-0.48270,	-0.44267,	-0.47183,	-0.56274,	-0.54704,	-0.55465,	-0.62282,	-0.75973,	-0.96144,	-1.17483,	-1.24872,	-1.12975,	-1.01300,	-0.94591,	-0.80535,	-0.77568,	-0.89286,	-0.89861,	-0.82418,	-0.60476,	-0.39648,	-0.35728,	-0.32604,	-0.20719,	-0.06803,	0.08419,	0.11094,	0.08816,	-0.11302,	-0.24306,	-0.36656,	-0.48410,	-0.59177,	-0.62603,	-0.59422,	-0.54734,	-0.44333,	-0.40442,	-0.47801,	-0.60620,	-0.65958,	-0.66927,	-0.61692,	-0.60159,	-0.81842,	-1.11949,	-1.21312,	-1.20440,	-1.24050,	-1.06532,	-0.88808,	-0.80146,	-0.71941,	-0.63714,	-0.50994,	-0.38305,	-0.38933,	-0.31488,	-0.42067,	-0.52327,	-0.78136,	-1.00243,	-1.18095,	-1.29693,	-1.28544,	-1.17899,	-1.10685,	-1.15367,	-1.15020,	-1.13863,	-1.06476,	-0.94520,	-0.80042,	-0.75140,	-0.78314,	-0.79871,	-0.88890,	-0.93003,	-0.71225,	-0.28510,	-0.01380,	0.16832,	0.32008,	0.53699,	0.83069,	1.01675,	1.09300,	1.13606,	1.04363,	1.10604,	1.09307,	1.17125,	1.12078,	1.08360,	1.12256,	1.22204,	1.25995,	1.27646,	1.21123,	1.07813,	1.15387,	1.31700,	1.47403,	1.43959,	1.23978,	0.98930,	0.78417,	0.73391,	0.64473,	0.55218,	0.49487,	0.39240,	0.15990,	0.02216,	0.02245,	0.03398,	0.10491,	0.14458,	0.08924,	0.08885,	-0.01425,	-0.00463,	-0.02475,	0.07851,	0.22324,	0.39743,	0.54618,	0.63859
0.54664,	0.64281,	0.67071,	0.73978,	0.84148,	0.87502,	0.88935,	0.95084,	1.10175,	1.32711,	1.59987,	1.92377,	1.99326,	2.01357,	2.00157,	1.98679,	2.09004,	2.15640,	2.30380,	2.43138,	2.43822,	2.28791,	2.17843,	2.19631,	2.21912,	2.36843,	2.60398,	2.65018,	2.77205,	2.89837,	2.96230,	3.00330,	3.04272,	3.09811,	3.13080,	3.21288,	3.27772,	3.12634,	2.73703,	2.49126,	2.42005,	2.42258,	2.38921,	2.36339,	2.25783,	2.20036,	2.12081,	1.93033,	1.88113,	1.81964,	1.67210,	1.44368,	1.35628,	1.27009,	1.18639,	1.11770,	1.07121,	1.04722,	1.02907,	0.86685,	0.81282,	0.87013,	0.86182,	0.84317,	0.86052,	0.94567,	0.96333,	0.84134,	0.71576,	0.51568,	0.21279,	-0.00539,	-0.23114,	-0.47980,	-0.73793,	-0.88107,	-1.03793,	-1.20717,	-1.28803,	-1.43469,	-1.61208,	-1.86625,	-2.04290,	-2.05168,	-1.88177,	-1.73664,	-1.62695,	-1.59459,	-1.67603,	-1.66299,	-1.44706,	-1.30735,	-1.19723,	-1.11023,	-1.07052,	-1.04864,	-1.04762,	-1.10334,	-1.33564,	-1.51675,	-1.51040,	-1.47652,	-1.59380,	-1.67383,	-1.57784,	-1.37961,	-1.24517,	-1.10937,	-0.98074,	-0.88290,	-0.86925,	-1.03332,	-1.10907,	-1.20952,	-1.38592,	-1.51376,	-1.45297,	-1.39698,	-1.37865,	-1.28033,	-1.08531,	-0.73083,	-0.25382,	0.12527,	0.41450,	0.69547,	0.88733,	0.90544,	0.95497,	1.16588,	1.39640,	1.56627,	1.66706,	1.63505,	1.44381,	1.28670,	1.25712,	1.23074,	1.17185,	1.07097,	0.80349,	0.45753,	0.24941,	0.15515,	0.15657,	0.18824,	0.11951,	-0.03712,	-0.12195,	-0.16778,	-0.13855,	-0.02574,	0.03485,	0.12459,	0.40972,	0.68082,	0.82495,	0.86508,	0.75507,	0.65961,	0.66717,	0.79634,	0.78144,	0.58709,	0.44384,	0.29826,	0.05473,	-0.18439,	-0.17149,	-0.07139,	-0.14663,	-0.23725,	-0.26712,	-0.35920,	-0.43588,	-0.52031,	-0.49046,	-0.46268,	-0.53994,	-0.61372,	-0.58884,	-0.51206,	-0.51920,	-0.53005,	-0.65887,	-0.81841,	-0.88832,	-1.01837,	-1.15660,	-1.13818,	-1.05373,	-1.00061,	-1.00006,	-0.93339,	-0.91333,	-0.94440,	-0.88767,	-0.79977,	-0.68074,	-0.59514,	-0.48932,	-0.37583,	-0.27759,	-0.08588,	0.05209,	0.04104,	-0.02891,	-0.22410,	-0.37462,	-0.42544,	-0.44348,	-0.44936,	-0.47239,	-0.46917,	-0.43461,	-0.31769,	-0.25661,	-0.36185,	-0.44360,	-0.41951,	-0.44021,	-0.39197,	-0.49772,	-0.77728,	-1.00850,	-1.08882,	-1.14299,	-1.21726,	-1.07483,	-0.84586,	-0.78157,	-0.76612,	-0.56776,	-0.35649,	-0.33546,	-0.33336,	-0.22897,	-0.34294,	-0.53011,	-0.77713,	-0.93873,	-0.95994,	-1.01407,	-1.02934,	-1.05443,	-1.02017,	-1.03824,	-1.03786,	-0.97422,	-0.91105,	-0.74568,	-0.59262,	-0.68080,	-0.74880,	-0.85662,	-0.96052,	-0.93841,	-0.72503,	-0.34448,	-0.06397,	0.13403,	0.35464,	0.56823,	0.77492,	0.99364,	1.18169,	1.17534,	1.07351,	1.07646,	1.02791,	1.10193,	1.14499,	1.11643,	1.14013,	1.17016,	1.20442,	1.22357,	1.18407,	1.10437,	1.18822,	1.35494,	1.43065,	1.39833,	1.31905,	1.12774,	1.01356,	0.86561,	0.63969,	0.53731,	0.49742,	0.37607,	0.20901,	0.14562,	0.18362,	0.09521,	0.00504,	0.06551,	0.13211,	0.07854,	-0.00229,	0.10063,	0.17618,	0.26094,	0.36351,	0.40130,	0.53501,	0.58662
0.57391,	0.60021,	0.62233,	0.68560,	0.71823,	0.70954,	0.85069,	0.96805,	1.15034,	1.34147,	1.66156,	2.00338,	2.05319,	1.96721,	1.99165,	2.01928,	2.17930,	2.20413,	2.35008,	2.37073,	2.36874,	2.26215,	2.09817,	2.06486,	2.11989,	2.26979,	2.46872,	2.50896,	2.64985,	2.68000,	2.81408,	2.92144,	2.95537,	2.94272,	2.94171,	3.04104,	3.10991,	3.00104,	2.80378,	2.61183,	2.49903,	2.34475,	2.24139,	2.23204,	2.21278,	2.15134,	2.12915,	1.89800,	1.80424,	1.64220,	1.49133,	1.19524,	1.09870,	1.05169,	0.92685,	0.81856,	0.82722,	0.82828,	0.76340,	0.55970,	0.54373,	0.55595,	0.64355,	0.71294,	0.71126,	0.71941,	0.71749,	0.62653,	0.53272,	0.32352,	0.12195,	-0.09353,	-0.37457,	-0.71729,	-0.94999,	-0.95355,	-0.98320,	-1.24069,	-1.38165,	-1.63014,	-1.84558,	-2.12790,	-2.26384,	-2.27559,	-2.07697,	-1.82409,	-1.65103,	-1.58936,	-1.59805,	-1.56748,	-1.41003,	-1.33405,	-1.20848,	-1.23439,	-1.21647,	-1.12825,	-1.10724,	-1.16293,	-1.35184,	-1.50683,	-1.52254,	-1.57693,	-1.66415,	-1.68117,	-1.53770,	-1.36367,	-1.25856,	-1.12489,	-0.99346,	-1.01745,	-1.03091,	-1.19081,	-1.22413,	-1.29608,	-1.41027,	-1.51170,	-1.44282,	-1.30548,	-1.27402,	-1.20721,	-0.95915,	-0.54952,	-0.09770,	0.18256,	0.42462,	0.59720,	0.76608,	0.89562,	1.01714,	1.19642,	1.39620,	1.52698,	1.56839,	1.47765,	1.37522,	1.41626,	1.48414,	1.39822,	1.23994,	1.09984,	0.84605,	0.41576,	0.11148,	-0.02691,	-0.05585,	-0.01965,	-0.02791,	-0.15232,	-0.28890,	-0.30993,	-0.27669,	-0.18422,	-0.07812,	0.02575,	0.24809,	0.43981,	0.61114,	0.68256,	0.61883,	0.65963,	0.71723,	0.77609,	0.70493,	0.52582,	0.41886,	0.27440,	0.05649,	-0.11945,	-0.14972,	-0.16178,	-0.30876,	-0.34150,	-0.27556,	-0.36887,	-0.50695,	-0.58880,	-0.59523,	-0.59387,	-0.70853,	-0.80434,	-0.84488,	-0.70123,	-0.65156,	-0.68349,	-0.79817,	-0.89902,	-0.95929,	-1.11288,	-1.18733,	-1.15613,	-1.12558,	-1.02406,	-1.04681,	-1.05456,	-1.05054,	-0.99584,	-0.90142,	-0.87311,	-0.79745,	-0.63708,	-0.50619,	-0.44335,	-0.46520,	-0.29621,	-0.14904,	-0.16598,	-0.28323,	-0.43766,	-0.60130,	-0.62051,	-0.60082,	-0.51791,	-0.56119,	-0.52550,	-0.45792,	-0.34148,	-0.22109,	-0.18425,	-0.21247,	-0.26384,	-0.32096,	-0.32788,	-0.54423,	-0.72135,	-0.85743,	-0.91188,	-1.00593,	-1.10754,	-1.01725,	-0.87023,	-0.82683,	-0.67817,	-0.43171,	-0.26293,	-0.36984,	-0.39077,	-0.26211,	-0.36217,	-0.63172,	-0.84734,	-1.00075,	-0.94871,	-0.97274,	-0.94734,	-1.05891,	-1.00976,	-0.96251,	-0.92778,	-0.80341,	-0.67026,	-0.55224,	-0.58271,	-0.79528,	-0.89702,	-1.05576,	-0.98680,	-0.87037,	-0.68072,	-0.40079,	-0.17937,	0.01201,	0.19927,	0.37557,	0.70374,	0.97134,	1.16483,	1.07853,	0.94479,	0.92366,	0.87038,	0.84788,	0.92543,	0.87912,	0.88858,	0.86600,	0.94254,	0.95102,	1.01226,	1.06216,	1.16161,	1.32556,	1.43464,	1.38914,	1.24776,	1.06454,	1.04002,	0.83732,	0.68665,	0.63166,	0.57308,	0.39662,	0.22148,	0.18119,	0.18671,	0.03127,	0.02856,	0.14082,	0.21375,	0.05885,	-0.06991,	0.05392,	0.19956,	0.20669,	0.27551,	0.22888,	0.33844,	0.36404
0.58639,	0.52333,	0.56957,	0.61166,	0.60211,	0.67821,	0.88944,	1.02946,	1.11003,	1.33621,	1.70622,	1.94719,	1.90681,	1.88412,	1.95449,	2.04925,	2.16930,	2.19744,	2.34023,	2.37698,	2.38687,	2.26177,	2.12548,	2.05391,	2.01874,	2.12113,	2.31716,	2.41120,	2.43911,	2.46226,	2.53831,	2.61867,	2.70771,	2.70880,	2.80646,	2.94070,	2.94407,	2.91678,	2.84875,	2.71075,	2.48356,	2.31055,	2.23467,	2.14478,	2.02844,	2.04801,	2.06944,	1.84998,	1.67601,	1.49369,	1.35236,	1.08325,	0.99088,	0.88948,	0.79016,	0.69936,	0.64916,	0.63402,	0.59145,	0.45884,	0.30950,	0.27564,	0.34406,	0.41959,	0.51415,	0.53078,	0.57722,	0.52119,	0.33856,	0.14868,	-0.00212,	-0.21540,	-0.59235,	-0.91554,	-1.01020,	-0.98632,	-1.10956,	-1.34675,	-1.49987,	-1.76329,	-2.03181,	-2.29548,	-2.40581,	-2.40409,	-2.17722,	-1.94473,	-1.70862,	-1.55330,	-1.56142,	-1.55610,	-1.45926,	-1.37203,	-1.35822,	-1.40191,	-1.38056,	-1.32032,	-1.25254,	-1.28620,	-1.36795,	-1.43425,	-1.51889,	-1.57726,	-1.62412,	-1.61662,	-1.55173,	-1.39149,	-1.20118,	-1.11722,	-1.14163,	-1.17435,	-1.15668,	-1.28778,	-1.33425,	-1.37598,	-1.40910,	-1.43550,	-1.31541,	-1.18888,	-1.11363,	-0.98403,	-0.79354,	-0.46623,	-0.07410,	0.22819,	0.40165,	0.53106,	0.70257,	0.81961,	0.98472,	1.14813,	1.34371,	1.50357,	1.47953,	1.40596,	1.42756,	1.57950,	1.61581,	1.47225,	1.36736,	1.18776,	0.80297,	0.36042,	0.04676,	-0.14387,	-0.23192,	-0.22359,	-0.17403,	-0.23238,	-0.32343,	-0.39442,	-0.40749,	-0.28657,	-0.19246,	-0.10855,	0.09069,	0.29533,	0.40051,	0.42819,	0.44043,	0.50337,	0.63100,	0.70972,	0.64553,	0.54274,	0.40428,	0.27042,	0.12379,	-0.02473,	-0.12913,	-0.24731,	-0.32111,	-0.33442,	-0.37422,	-0.49472,	-0.59056,	-0.67491,	-0.71883,	-0.75799,	-0.83448,	-0.91631,	-0.97544,	-0.89984,	-0.86966,	-0.81615,	-0.87009,	-0.96144,	-1.00883,	-1.10527,	-1.19374,	-1.26105,	-1.23778,	-1.19037,	-1.19173,	-1.17123,	-1.13478,	-0.96351,	-0.89492,	-0.92252,	-0.81571,	-0.61880,	-0.49788,	-0.52983,	-0.53309,	-0.40244,	-0.39755,	-0.48722,	-0.54286,	-0.65759,	-0.79896,	-0.85805,	-0.82122,	-0.70771,	-0.69447,	-0.63166,	-0.55668,	-0.37508,	-0.23960,	-0.19899,	-0.18406,	-0.19811,	-0.24994,	-0.38644,	-0.59568,	-0.77259,	-0.84029,	-0.79475,	-0.86904,	-0.89811,	-0.84538,	-0.78404,	-0.69572,	-0.50508,	-0.28548,	-0.25720,	-0.34528,	-0.35103,	-0.33550,	-0.51106,	-0.70046,	-0.88049,	-1.03114,	-1.02705,	-1.00642,	-0.92924,	-0.96909,	-0.89990,	-0.86245,	-0.75879,	-0.62810,	-0.56971,	-0.52869,	-0.61464,	-0.82710,	-1.05372,	-1.16223,	-1.06912,	-0.94123,	-0.71783,	-0.48472,	-0.21384,	-0.01246,	0.10158,	0.29650,	0.64466,	0.90522,	0.97645,	0.92387,	0.85750,	0.74725,	0.55546,	0.53412,	0.61665,	0.60245,	0.58976,	0.59520,	0.68299,	0.71675,	0.83790,	0.92304,	1.09818,	1.30033,	1.35843,	1.28748,	1.15137,	1.04547,	0.96092,	0.80893,	0.68526,	0.64848,	0.66020,	0.48452,	0.37202,	0.35006,	0.25701,	0.12577,	0.15901,	0.27013,	0.24004,	0.09836,	0.02020,	0.02471,	0.01330,	0.04419,	0.14409,	0.14280,	0.20847,	0.25152
0.76334,	0.53170,	0.46804,	0.48729,	0.55781,	0.78238,	0.92360,	1.09475,	1.15227,	1.36912,	1.65344,	1.75195,	1.84245,	1.98304,	2.04682,	2.17609,	2.23602,	2.24805,	2.30617,	2.42264,	2.48629,	2.33995,	2.19785,	2.11751,	1.98376,	1.96192,	2.06101,	2.25808,	2.33809,	2.41315,	2.45220,	2.50081,	2.56898,	2.58347,	2.70986,	2.86455,	2.84528,	2.82887,	2.67719,	2.60772,	2.45720,	2.35400,	2.24939,	2.02657,	1.94058,	2.05787,	2.00126,	1.78428,	1.60146,	1.46203,	1.30535,	1.11024,	1.04021,	0.84620,	0.65873,	0.57237,	0.45003,	0.40426,	0.38920,	0.42936,	0.32164,	0.22820,	0.21416,	0.25172,	0.40302,	0.44615,	0.46470,	0.43570,	0.18353,	0.01045,	-0.25706,	-0.49281,	-0.75425,	-0.94632,	-0.95470,	-1.04106,	-1.21864,	-1.36928,	-1.59721,	-1.82454,	-2.02513,	-2.20362,	-2.31951,	-2.34222,	-2.16575,	-2.06944,	-1.94150,	-1.70004,	-1.64714,	-1.63352,	-1.60667,	-1.47162,	-1.41387,	-1.36728,	-1.31540,	-1.32083,	-1.31264,	-1.44973,	-1.55680,	-1.51099,	-1.54436,	-1.50793,	-1.61408,	-1.65375,	-1.56466,	-1.38622,	-1.19217,	-1.23927,	-1.30571,	-1.18841,	-1.15591,	-1.26268,	-1.25922,	-1.25406,	-1.28862,	-1.30041,	-1.18244,	-1.09418,	-1.02241,	-0.78230,	-0.58773,	-0.39014,	-0.14756,	0.17552,	0.47093,	0.69820,	0.91106,	0.99068,	1.07346,	1.12881,	1.19598,	1.37342,	1.42298,	1.48621,	1.55634,	1.63560,	1.64779,	1.50070,	1.41167,	1.16504,	0.77578,	0.51535,	0.22372,	-0.06980,	-0.21131,	-0.25151,	-0.24018,	-0.25817,	-0.26348,	-0.37230,	-0.49155,	-0.38514,	-0.26182,	-0.14235,	0.00867,	0.18715,	0.28568,	0.26640,	0.32814,	0.42615,	0.61062,	0.68648,	0.56071,	0.49087,	0.36469,	0.28575,	0.13282,	-0.11312,	-0.19517,	-0.26786,	-0.26137,	-0.33664,	-0.44921,	-0.46734,	-0.55268,	-0.73376,	-0.80657,	-0.80289,	-0.80159,	-0.83966,	-0.88293,	-0.95998,	-1.07859,	-1.02761,	-0.94320,	-0.96408,	-1.01589,	-1.09742,	-1.17979,	-1.27320,	-1.26983,	-1.25762,	-1.19156,	-1.15162,	-1.13909,	-0.99092,	-0.97032,	-0.99189,	-0.87651,	-0.74003,	-0.53563,	-0.48641,	-0.42373,	-0.43978,	-0.60733,	-0.66463,	-0.69190,	-0.82985,	-0.90143,	-0.92936,	-0.89838,	-0.84561,	-0.75741,	-0.65277,	-0.63315,	-0.51510,	-0.40576,	-0.42601,	-0.40715,	-0.36131,	-0.28160,	-0.36695,	-0.51975,	-0.68478,	-0.70637,	-0.65766,	-0.77527,	-0.80721,	-0.73692,	-0.63367,	-0.48121,	-0.40089,	-0.18427,	-0.17418,	-0.23688,	-0.34853,	-0.49599,	-0.55174,	-0.57697,	-0.73795,	-0.86792,	-0.91860,	-0.91676,	-0.88236,	-0.77828,	-0.66519,	-0.67598,	-0.64956,	-0.57037,	-0.58598,	-0.64907,	-0.76177,	-0.82233,	-0.96721,	-0.99735,	-0.97463,	-0.91977,	-0.77427,	-0.62196,	-0.33622,	-0.06122,	0.11512,	0.37253,	0.52806,	0.71572,	0.73282,	0.71474,	0.66904,	0.47991,	0.35967,	0.41724,	0.42347,	0.47273,	0.55117,	0.59770,	0.58106,	0.57215,	0.64774,	0.70675,	0.87135,	1.15425,	1.23407,	1.14608,	0.99399,	0.99941,	0.97502,	0.89862,	0.79981,	0.79307,	0.83898,	0.65902,	0.53389,	0.54522,	0.42501,	0.34271,	0.20906,	0.24616,	0.27130,	0.23969,	0.20569,	0.02668,	-0.05843,	0.03227,	0.09945,	0.21782,	0.35607,	0.45578
0.86865,	0.64606,	0.54190,	0.45502,	0.49046,	0.77732,	0.98908,	1.15772,	1.29993,	1.42230,	1.53765,	1.65943,	1.87967,	2.04019,	2.17574,	2.24870,	2.25246,	2.22463,	2.22992,	2.38816,	2.41666,	2.32425,	2.33570,	2.24601,	2.06445,	1.97114,	1.91428,	2.12184,	2.27881,	2.38768,	2.44361,	2.44082,	2.43746,	2.53489,	2.72681,	2.82377,	2.74617,	2.67658,	2.56702,	2.50670,	2.49453,	2.39202,	2.14106,	1.94423,	1.94740,	1.98061,	1.91239,	1.66920,	1.50264,	1.37786,	1.22588,	1.09057,	0.95519,	0.72542,	0.58802,	0.45604,	0.29597,	0.28942,	0.24674,	0.36352,	0.37339,	0.24903,	0.18105,	0.11678,	0.17961,	0.28987,	0.38617,	0.35354,	0.04418,	-0.15746,	-0.40053,	-0.68351,	-0.79416,	-0.90440,	-1.01115,	-1.13280,	-1.27570,	-1.49319,	-1.72593,	-1.92232,	-2.04445,	-2.15181,	-2.22072,	-2.21956,	-2.17810,	-2.18770,	-2.01901,	-1.74165,	-1.65564,	-1.57433,	-1.61009,	-1.51664,	-1.40703,	-1.31081,	-1.25058,	-1.33833,	-1.46137,	-1.64109,	-1.66956,	-1.57763,	-1.59763,	-1.53908,	-1.60101,	-1.68327,	-1.56002,	-1.40233,	-1.38799,	-1.46027,	-1.41518,	-1.30555,	-1.23617,	-1.29674,	-1.24576,	-1.20089,	-1.24138,	-1.22589,	-1.17033,	-1.08942,	-0.87794,	-0.52947,	-0.30807,	-0.14387,	-0.05038,	0.13832,	0.47423,	0.76983,	1.03395,	1.11408,	1.07800,	1.09180,	1.17103,	1.31995,	1.39174,	1.51928,	1.66951,	1.66117,	1.61705,	1.48030,	1.23809,	0.99227,	0.77416,	0.57791,	0.35827,	0.08364,	-0.10218,	-0.16772,	-0.19502,	-0.15755,	-0.16399,	-0.30722,	-0.36416,	-0.25226,	-0.16193,	0.00517,	0.08008,	0.11389,	0.17894,	0.11477,	0.19418,	0.32364,	0.47474,	0.56572,	0.50683,	0.44457,	0.27255,	0.15829,	0.02759,	-0.22889,	-0.31742,	-0.31084,	-0.38831,	-0.49634,	-0.49736,	-0.51550,	-0.64051,	-0.81989,	-0.90951,	-0.81423,	-0.75207,	-0.69090,	-0.72190,	-0.94264,	-1.08744,	-1.05626,	-0.97986,	-0.92018,	-0.95764,	-1.09986,	-1.18687,	-1.27058,	-1.30013,	-1.30808,	-1.25571,	-1.19415,	-1.11176,	-1.03256,	-1.12504,	-1.19023,	-1.06144,	-0.87942,	-0.65247,	-0.45691,	-0.41181,	-0.52462,	-0.65341,	-0.72165,	-0.79675,	-0.86203,	-0.91293,	-0.87249,	-0.85393,	-0.82903,	-0.73500,	-0.68353,	-0.64906,	-0.52684,	-0.51014,	-0.56431,	-0.53199,	-0.52760,	-0.38650,	-0.39208,	-0.51128,	-0.63791,	-0.68821,	-0.67810,	-0.73099,	-0.73329,	-0.70708,	-0.61753,	-0.43438,	-0.32907,	-0.17544,	-0.11382,	-0.26074,	-0.50993,	-0.59539,	-0.51976,	-0.50226,	-0.50901,	-0.59989,	-0.64399,	-0.69809,	-0.73640,	-0.59982,	-0.53950,	-0.51060,	-0.42610,	-0.43605,	-0.49170,	-0.61540,	-0.83370,	-0.83170,	-0.86895,	-0.88937,	-0.96008,	-1.03979,	-1.01158,	-0.84128,	-0.49131,	-0.21681,	-0.00825,	0.31238,	0.46556,	0.53021,	0.56754,	0.50940,	0.38973,	0.29857,	0.32454,	0.35622,	0.39989,	0.47313,	0.63691,	0.67353,	0.58238,	0.51340,	0.43999,	0.50874,	0.77743,	1.06662,	1.16854,	1.10519,	0.88123,	0.88493,	0.92147,	0.88473,	0.83105,	0.81450,	0.82494,	0.72669,	0.68018,	0.66237,	0.48412,	0.39089,	0.25659,	0.21779,	0.36236,	0.38290,	0.29497,	0.14342,	0.10895,	0.09691,	0.15010,	0.31063,	0.52951,	0.67922
0.97176,	0.83969,	0.69706,	0.54891,	0.57688,	0.85054,	1.06229,	1.17971,	1.34714,	1.41578,	1.55973,	1.71401,	1.78967,	1.85174,	2.04276,	2.08030,	2.07444,	2.04737,	2.04590,	2.23783,	2.30948,	2.23152,	2.24731,	2.14126,	1.95351,	1.90422,	1.89837,	2.10664,	2.20772,	2.31566,	2.38235,	2.34209,	2.41509,	2.56649,	2.70052,	2.74521,	2.72793,	2.70059,	2.65110,	2.53336,	2.50452,	2.35114,	2.12955,	2.03529,	1.96188,	1.85874,	1.80835,	1.52625,	1.31947,	1.15861,	0.99433,	0.92158,	0.85118,	0.62150,	0.44258,	0.24722,	0.08006,	0.15292,	0.17247,	0.30743,	0.31111,	0.19839,	0.13913,	-0.01863,	0.02444,	0.17146,	0.25748,	0.23236,	0.03996,	-0.10779,	-0.31134,	-0.69241,	-0.85368,	-0.99763,	-1.09287,	-1.13021,	-1.33216,	-1.68767,	-1.90938,	-2.12673,	-2.26025,	-2.33765,	-2.36588,	-2.28336,	-2.18695,	-2.19924,	-2.03525,	-1.78817,	-1.72891,	-1.57934,	-1.53796,	-1.43500,	-1.37356,	-1.31813,	-1.27911,	-1.43281,	-1.52267,	-1.60088,	-1.58124,	-1.51055,	-1.48245,	-1.41175,	-1.46068,	-1.63087,	-1.58453,	-1.49106,	-1.50970,	-1.48116,	-1.45703,	-1.51836,	-1.45139,	-1.48518,	-1.43628,	-1.35408,	-1.37644,	-1.28517,	-1.11524,	-0.97750,	-0.75597,	-0.42895,	-0.22587,	-0.03029,	0.07792,	0.18457,	0.39269,	0.64175,	0.95111,	1.07083,	1.12537,	1.25305,	1.34380,	1.39818,	1.46905,	1.63518,	1.81792,	1.71398,	1.56100,	1.36668,	1.05862,	0.90575,	0.73148,	0.42033,	0.24762,	0.04641,	-0.16060,	-0.19963,	-0.20296,	-0.09672,	-0.03034,	-0.15243,	-0.22034,	-0.18055,	-0.17614,	-0.02397,	0.05005,	0.05685,	0.07273,	-0.01064,	0.12370,	0.24915,	0.40420,	0.57142,	0.52790,	0.40716,	0.24110,	0.17146,	0.07772,	-0.21996,	-0.40320,	-0.44272,	-0.56374,	-0.55476,	-0.50291,	-0.68273,	-0.86014,	-0.99854,	-1.09190,	-0.94091,	-0.85960,	-0.71850,	-0.63572,	-0.82123,	-0.98786,	-1.07861,	-1.13656,	-1.07356,	-1.03642,	-1.09481,	-1.15320,	-1.26525,	-1.29332,	-1.35094,	-1.32753,	-1.15849,	-1.02608,	-1.01286,	-1.11687,	-1.12436,	-0.99400,	-0.87773,	-0.76333,	-0.59399,	-0.56629,	-0.55183,	-0.60033,	-0.79279,	-0.89611,	-0.88999,	-0.97857,	-0.92911,	-0.92277,	-0.88231,	-0.73386,	-0.67294,	-0.66597,	-0.59631,	-0.62887,	-0.63592,	-0.50156,	-0.44369,	-0.31921,	-0.38621,	-0.49398,	-0.59831,	-0.64799,	-0.52015,	-0.50087,	-0.54922,	-0.57384,	-0.46469,	-0.28540,	-0.21565,	-0.18591,	-0.17372,	-0.37846,	-0.52408,	-0.47685,	-0.47371,	-0.50946,	-0.40551,	-0.46758,	-0.48175,	-0.54683,	-0.63320,	-0.49559,	-0.40308,	-0.36308,	-0.28649,	-0.35109,	-0.44615,	-0.56587,	-0.79134,	-0.81551,	-0.89429,	-0.90595,	-0.98476,	-1.11539,	-1.02675,	-0.84755,	-0.58619,	-0.37293,	-0.11271,	0.23765,	0.38310,	0.31466,	0.31437,	0.24364,	0.22378,	0.26156,	0.23026,	0.17633,	0.27908,	0.33390,	0.48075,	0.49925,	0.41313,	0.40604,	0.40870,	0.50244,	0.73420,	0.94583,	0.99950,	0.98389,	0.83401,	0.85645,	0.86887,	0.86260,	0.85096,	0.79340,	0.86608,	0.85076,	0.79245,	0.73465,	0.60947,	0.54293,	0.44669,	0.34334,	0.46026,	0.43855,	0.40925,	0.38770,	0.28902,	0.11472,	0.12525,	0.22077,	0.42983,	0.62203
0.93369,	0.84313,	0.78118,	0.68216,	0.72572,	0.93422,	1.04347,	1.16819,	1.37498,	1.46813,	1.63824,	1.63280,	1.55493,	1.60573,	1.79799,	1.91876,	1.96765,	2.00221,	2.04063,	2.13655,	2.15620,	2.09869,	2.03047,	2.01156,	1.95454,	1.91334,	1.93224,	2.09636,	2.21314,	2.30135,	2.35418,	2.33390,	2.34183,	2.44799,	2.59239,	2.65593,	2.69784,	2.69846,	2.61221,	2.48939,	2.44420,	2.33370,	2.25082,	2.13290,	1.98759,	1.88792,	1.81310,	1.54630,	1.28764,	1.05950,	0.88795,	0.74495,	0.64240,	0.49966,	0.27284,	0.12942,	0.09302,	0.12491,	0.10761,	0.17643,	0.21481,	0.14057,	0.08725,	-0.06263,	-0.13349,	-0.08625,	-0.00328,	0.05565,	0.04596,	-0.01232,	-0.23934,	-0.66353,	-0.90965,	-1.09776,	-1.12658,	-1.18305,	-1.44870,	-1.77617,	-1.99482,	-2.19664,	-2.33821,	-2.39724,	-2.34860,	-2.28351,	-2.22886,	-2.17469,	-2.07902,	-1.85908,	-1.70674,	-1.55121,	-1.48155,	-1.39101,	-1.31260,	-1.26422,	-1.25645,	-1.39905,	-1.53040,	-1.64230,	-1.60356,	-1.51392,	-1.42786,	-1.31525,	-1.38668,	-1.58419,	-1.58535,	-1.53932,	-1.48769,	-1.46852,	-1.55890,	-1.66768,	-1.63971,	-1.64507,	-1.56818,	-1.42206,	-1.32523,	-1.22099,	-1.08139,	-0.90284,	-0.75531,	-0.48411,	-0.18675,	0.01870,	0.10558,	0.14307,	0.28857,	0.52167,	0.82044,	1.05231,	1.22828,	1.38277,	1.49511,	1.51379,	1.55148,	1.70203,	1.83139,	1.69985,	1.51517,	1.26529,	1.00247,	0.84118,	0.58550,	0.30157,	0.17933,	0.05039,	-0.10811,	-0.11029,	-0.03484,	0.02796,	-0.00384,	-0.09361,	-0.20366,	-0.24602,	-0.19691,	-0.06547,	-0.02320,	-0.03956,	-0.01771,	-0.04084,	0.09255,	0.22482,	0.36515,	0.48335,	0.44990,	0.35528,	0.22792,	0.19941,	0.10089,	-0.21100,	-0.42254,	-0.54053,	-0.62681,	-0.59086,	-0.62458,	-0.79095,	-0.94023,	-1.05674,	-1.12683,	-1.00540,	-0.88651,	-0.76159,	-0.72686,	-0.83842,	-0.99498,	-1.19063,	-1.25177,	-1.20438,	-1.19420,	-1.18461,	-1.14824,	-1.17802,	-1.22561,	-1.33647,	-1.36291,	-1.25694,	-1.09637,	-0.98223,	-0.99818,	-0.93436,	-0.82888,	-0.81715,	-0.77500,	-0.68826,	-0.63473,	-0.53765,	-0.63144,	-0.80993,	-0.87632,	-0.89164,	-0.98395,	-0.95649,	-0.91192,	-0.87882,	-0.82784,	-0.76425,	-0.72653,	-0.71603,	-0.64908,	-0.54491,	-0.40108,	-0.34053,	-0.23495,	-0.23905,	-0.33744,	-0.43232,	-0.46343,	-0.38334,	-0.35315,	-0.35889,	-0.40205,	-0.32173,	-0.19907,	-0.22336,	-0.21639,	-0.20544,	-0.34422,	-0.35463,	-0.34921,	-0.40130,	-0.43397,	-0.35455,	-0.36977,	-0.35541,	-0.36202,	-0.44385,	-0.43362,	-0.37888,	-0.31516,	-0.28579,	-0.26432,	-0.29790,	-0.48033,	-0.77308,	-0.87222,	-0.90870,	-0.88078,	-0.89035,	-0.96406,	-0.94141,	-0.83367,	-0.62534,	-0.45840,	-0.20428,	0.10209,	0.15913,	0.05664,	0.04286,	0.00588,	0.08374,	0.08198,	0.01222,	-0.00336,	0.08414,	0.14801,	0.28723,	0.35899,	0.34668,	0.30708,	0.31408,	0.45654,	0.57224,	0.79078,	0.95395,	0.95518,	0.84881,	0.87465,	0.96013,	0.99689,	0.99939,	0.92779,	0.89341,	0.84076,	0.81014,	0.80468,	0.80319,	0.80900,	0.71569,	0.60968,	0.65198,	0.57220,	0.58532,	0.51699,	0.33718,	0.15889,	0.09286,	0.13124,	0.31051,	0.55319
0.74917,	0.70428,	0.76798,	0.76731,	0.82435,	0.99643,	1.08239,	1.14185,	1.35122,	1.44794,	1.56196,	1.42685,	1.35414,	1.42126,	1.59900,	1.82259,	1.92119,	2.02863,	2.06230,	2.05460,	2.06440,	2.05212,	1.95083,	2.00369,	1.93968,	1.90386,	1.94750,	1.99507,	2.03667,	2.09629,	2.15313,	2.19544,	2.20393,	2.25885,	2.45561,	2.53527,	2.53055,	2.53851,	2.49588,	2.36369,	2.33811,	2.31231,	2.32801,	2.16390,	2.06129,	1.99815,	1.89536,	1.67446,	1.36735,	1.09815,	0.84894,	0.56533,	0.42895,	0.42556,	0.29827,	0.27917,	0.22302,	0.09487,	-0.00807,	-0.08687,	-0.12960,	-0.16712,	-0.19691,	-0.24269,	-0.26514,	-0.31895,	-0.27466,	-0.22146,	-0.19663,	-0.16810,	-0.26502,	-0.63307,	-0.90118,	-1.13155,	-1.19290,	-1.31958,	-1.52748,	-1.75040,	-1.92561,	-2.04996,	-2.21652,	-2.28188,	-2.26110,	-2.29810,	-2.25234,	-2.06223,	-1.96346,	-1.79181,	-1.71703,	-1.63141,	-1.51057,	-1.44963,	-1.44706,	-1.41086,	-1.39646,	-1.49371,	-1.59046,	-1.76158,	-1.75633,	-1.68511,	-1.63691,	-1.47191,	-1.41569,	-1.57077,	-1.58809,	-1.57411,	-1.50806,	-1.54433,	-1.62590,	-1.66234,	-1.67074,	-1.64788,	-1.60053,	-1.41272,	-1.21894,	-1.15002,	-1.06016,	-0.85709,	-0.73826,	-0.52778,	-0.28114,	-0.13547,	-0.02759,	0.02259,	0.11946,	0.31846,	0.56178,	0.83716,	1.17329,	1.38865,	1.55765,	1.59086,	1.51892,	1.58205,	1.71371,	1.62858,	1.45384,	1.19035,	0.97637,	0.77895,	0.51094,	0.33851,	0.22731,	0.16497,	0.06182,	0.08919,	0.17455,	0.05310,	-0.11693,	-0.10798,	-0.15496,	-0.21783,	-0.22757,	-0.20865,	-0.14457,	-0.16529,	-0.19459,	-0.20919,	-0.12394,	-0.01043,	0.17190,	0.30012,	0.30110,	0.24172,	0.08254,	0.03547,	0.01290,	-0.18726,	-0.35426,	-0.48034,	-0.56535,	-0.61584,	-0.73973,	-0.76981,	-0.84802,	-0.91530,	-1.00042,	-1.01636,	-0.93081,	-0.96611,	-1.02441,	-0.97069,	-1.00399,	-1.14129,	-1.20210,	-1.31809,	-1.39079,	-1.40428,	-1.37177,	-1.35336,	-1.38757,	-1.50260,	-1.51496,	-1.43791,	-1.26487,	-1.01751,	-0.96738,	-0.88104,	-0.69981,	-0.64015,	-0.65393,	-0.64234,	-0.63680,	-0.56963,	-0.67665,	-0.69627,	-0.74393,	-0.83431,	-0.94858,	-0.96071,	-0.86355,	-0.92782,	-1.01886,	-0.86064,	-0.67447,	-0.62060,	-0.49214,	-0.45764,	-0.36174,	-0.32659,	-0.29078,	-0.25570,	-0.32825,	-0.43157,	-0.42843,	-0.35267,	-0.31779,	-0.24550,	-0.29610,	-0.29749,	-0.19756,	-0.20586,	-0.22166,	-0.14297,	-0.17415,	-0.11114,	-0.19127,	-0.23821,	-0.29886,	-0.33272,	-0.33966,	-0.32412,	-0.24693,	-0.31864,	-0.41426,	-0.34623,	-0.24355,	-0.24498,	-0.17652,	-0.28573,	-0.49823,	-0.79900,	-1.00239,	-1.07450,	-1.01570,	-0.93957,	-0.90658,	-0.86381,	-0.80260,	-0.62253,	-0.54774,	-0.44397,	-0.23026,	-0.14588,	-0.22779,	-0.18693,	-0.21462,	-0.17700,	-0.26167,	-0.22615,	-0.14695,	-0.10145,	-0.03913,	0.09460,	0.27313,	0.28133,	0.16562,	0.20247,	0.41962,	0.50182,	0.74464,	0.90496,	0.92190,	0.87036,	0.86104,	0.94008,	1.01442,	1.03594,	1.00315,	0.96169,	0.86359,	0.85187,	0.87207,	0.93321,	1.06311,	1.13342,	1.02487,	0.96199,	0.77887,	0.67213,	0.48059,	0.34016,	0.23772,	0.15471,	0.17882,	0.28342,	0.52312
0.72661,	0.74926,	0.86857,	0.96740,	1.02210,	1.16684,	1.21249,	1.19301,	1.28618,	1.32260,	1.31487,	1.25347,	1.25856,	1.34260,	1.54312,	1.77609,	1.77283,	1.83888,	1.88722,	1.95535,	1.98006,	1.93359,	1.84094,	1.89536,	1.76989,	1.80875,	1.89558,	1.88599,	1.92738,	2.00946,	2.04339,	2.15430,	2.26845,	2.30007,	2.45421,	2.53039,	2.43529,	2.43485,	2.42119,	2.34811,	2.34533,	2.34988,	2.29520,	2.16359,	2.09317,	2.00859,	1.91725,	1.73184,	1.34726,	1.03981,	0.75774,	0.50376,	0.35128,	0.30952,	0.26073,	0.30614,	0.17493,	0.01257,	-0.12411,	-0.29678,	-0.34342,	-0.31955,	-0.39179,	-0.36665,	-0.23401,	-0.30729,	-0.35562,	-0.38340,	-0.47209,	-0.42431,	-0.42426,	-0.61014,	-0.78860,	-1.00715,	-1.20200,	-1.37779,	-1.55042,	-1.74323,	-1.83824,	-1.86252,	-2.09402,	-2.24564,	-2.30116,	-2.29912,	-2.18748,	-1.98528,	-1.85905,	-1.72387,	-1.79602,	-1.70824,	-1.50626,	-1.46855,	-1.49986,	-1.45716,	-1.50877,	-1.61772,	-1.61821,	-1.77314,	-1.82287,	-1.75633,	-1.76717,	-1.62518,	-1.54603,	-1.63445,	-1.63980,	-1.63971,	-1.65520,	-1.69677,	-1.66742,	-1.61833,	-1.59489,	-1.53257,	-1.61814,	-1.57576,	-1.42693,	-1.28276,	-1.11540,	-0.94864,	-0.82687,	-0.62913,	-0.48109,	-0.32981,	-0.16000,	-0.07961,	0.05288,	0.29133,	0.45358,	0.63779,	1.06377,	1.37162,	1.57131,	1.68005,	1.56805,	1.54231,	1.60669,	1.51290,	1.34043,	1.08580,	0.87015,	0.70017,	0.53064,	0.39989,	0.30700,	0.31723,	0.20822,	0.15370,	0.16694,	0.02611,	-0.11674,	-0.08475,	-0.06821,	-0.11420,	-0.25679,	-0.32224,	-0.22102,	-0.26767,	-0.31541,	-0.27073,	-0.22437,	-0.17338,	0.06630,	0.22497,	0.18007,	0.11690,	-0.06683,	-0.15178,	-0.13738,	-0.22313,	-0.25283,	-0.29417,	-0.39933,	-0.55287,	-0.71861,	-0.77329,	-0.82943,	-0.83511,	-0.95641,	-1.15950,	-1.17858,	-1.21816,	-1.18188,	-1.05014,	-1.01842,	-1.05846,	-1.16182,	-1.38901,	-1.49370,	-1.63486,	-1.68555,	-1.60917,	-1.61150,	-1.70803,	-1.61976,	-1.46216,	-1.31946,	-1.06632,	-0.98348,	-0.90484,	-0.66135,	-0.52462,	-0.51084,	-0.54374,	-0.60947,	-0.62663,	-0.64905,	-0.58948,	-0.61588,	-0.69931,	-0.83926,	-0.95716,	-0.88230,	-0.93930,	-0.98900,	-0.80370,	-0.57525,	-0.46458,	-0.36597,	-0.40844,	-0.28522,	-0.28036,	-0.30904,	-0.26280,	-0.36294,	-0.55690,	-0.52328,	-0.35656,	-0.31432,	-0.21724,	-0.19211,	-0.20762,	-0.11204,	-0.12404,	-0.16201,	-0.08712,	-0.06193,	-0.01620,	-0.04761,	-0.09549,	-0.19778,	-0.26811,	-0.28502,	-0.38561,	-0.35268,	-0.36114,	-0.34687,	-0.24403,	-0.19073,	-0.26600,	-0.28740,	-0.50191,	-0.62501,	-0.83626,	-1.05031,	-1.09843,	-1.04378,	-1.04116,	-0.96236,	-0.81667,	-0.77370,	-0.66425,	-0.65452,	-0.72103,	-0.61480,	-0.54003,	-0.54577,	-0.43324,	-0.41255,	-0.46544,	-0.50404,	-0.36227,	-0.21783,	-0.15293,	-0.09605,	-0.07066,	0.08293,	0.11357,	0.10240,	0.22454,	0.44848,	0.55183,	0.76005,	0.79898,	0.85393,	0.85146,	0.82131,	0.93324,	1.04996,	1.02402,	1.07220,	1.19987,	1.12935,	1.07336,	1.07160,	1.09646,	1.30064,	1.47392,	1.43290,	1.31759,	1.06975,	0.78681,	0.57552,	0.46012,	0.34278,	0.28744,	0.33099,	0.31173,	0.42419
0.66842,	0.73867,	0.91247,	1.08498,	1.15648,	1.24798,	1.20054,	1.15775,	1.06219,	1.06526,	1.08889,	1.13552,	1.18537,	1.30269,	1.47954,	1.71792,	1.74699,	1.75035,	1.78436,	1.91712,	1.83342,	1.75505,	1.64175,	1.72952,	1.70951,	1.83853,	1.94565,	1.90696,	1.94755,	2.09776,	2.18973,	2.35866,	2.35243,	2.31851,	2.41132,	2.48964,	2.39764,	2.39271,	2.34582,	2.36753,	2.30184,	2.27988,	2.21818,	2.12494,	2.01233,	1.89253,	1.75405,	1.61655,	1.35256,	1.05299,	0.76063,	0.57768,	0.29886,	0.15684,	0.06131,	0.12242,	0.10110,	0.04200,	-0.09308,	-0.31619,	-0.35474,	-0.25590,	-0.31765,	-0.27128,	-0.27629,	-0.42444,	-0.51713,	-0.57526,	-0.69569,	-0.65558,	-0.68143,	-0.69065,	-0.81635,	-0.98794,	-1.14375,	-1.32807,	-1.55290,	-1.74336,	-1.83690,	-1.78016,	-1.87950,	-2.05056,	-2.15883,	-2.07878,	-2.03303,	-1.89073,	-1.78596,	-1.65775,	-1.69327,	-1.53680,	-1.30575,	-1.33549,	-1.44226,	-1.40629,	-1.50157,	-1.60890,	-1.72043,	-1.91698,	-1.95136,	-1.82575,	-1.79508,	-1.71008,	-1.75988,	-1.80425,	-1.84697,	-1.88779,	-1.87553,	-1.87095,	-1.79935,	-1.69274,	-1.67161,	-1.57977,	-1.62794,	-1.70236,	-1.67815,	-1.47427,	-1.30599,	-1.16542,	-1.04227,	-0.81934,	-0.56895,	-0.30162,	-0.08987,	-0.05721,	0.03032,	0.31868,	0.49082,	0.65001,	0.95523,	1.18977,	1.39858,	1.60400,	1.57296,	1.53172,	1.46451,	1.30400,	1.08335,	0.80787,	0.69147,	0.64187,	0.54730,	0.43340,	0.35458,	0.41545,	0.41987,	0.36593,	0.30995,	0.23371,	0.08366,	0.05435,	0.08360,	0.02191,	-0.11633,	-0.16151,	-0.08428,	-0.21860,	-0.33159,	-0.22410,	-0.12958,	-0.06166,	0.08641,	0.05770,	-0.07678,	-0.11390,	-0.23390,	-0.29913,	-0.32596,	-0.37659,	-0.30983,	-0.32878,	-0.36494,	-0.49811,	-0.72262,	-0.89783,	-1.00486,	-1.01049,	-1.01899,	-1.18575,	-1.27575,	-1.22781,	-1.09913,	-1.02104,	-0.99297,	-1.05140,	-1.13889,	-1.29992,	-1.39631,	-1.67879,	-1.86354,	-1.77420,	-1.72504,	-1.74168,	-1.63556,	-1.58121,	-1.48520,	-1.25398,	-1.11486,	-0.98809,	-0.75140,	-0.60182,	-0.52266,	-0.61809,	-0.63009,	-0.58656,	-0.55574,	-0.50645,	-0.50072,	-0.56073,	-0.60835,	-0.65678,	-0.61997,	-0.63613,	-0.64085,	-0.59070,	-0.41513,	-0.34612,	-0.23721,	-0.18405,	-0.00254,	-0.05849,	-0.19714,	-0.23402,	-0.37651,	-0.58897,	-0.57746,	-0.54244,	-0.51459,	-0.37860,	-0.22911,	-0.15201,	-0.07416,	-0.15869,	-0.21226,	-0.27573,	-0.21048,	-0.08349,	-0.02987,	-0.08331,	-0.19891,	-0.28684,	-0.22828,	-0.28426,	-0.34276,	-0.34918,	-0.25144,	-0.23044,	-0.21172,	-0.38507,	-0.44736,	-0.57824,	-0.59139,	-0.74262,	-0.96470,	-1.00760,	-0.95914,	-1.02778,	-0.98105,	-0.99771,	-1.02417,	-0.95576,	-0.94526,	-1.03878,	-0.99709,	-1.00395,	-0.92540,	-0.82637,	-0.69539,	-0.64061,	-0.58711,	-0.41380,	-0.22189,	-0.16577,	-0.06048,	0.01592,	0.10008,	0.13871,	0.25785,	0.35908,	0.59606,	0.67691,	0.85106,	0.88676,	0.96829,	0.96451,	0.88419,	0.97483,	1.12733,	1.10679,	1.23532,	1.31123,	1.23906,	1.18217,	1.18428,	1.21549,	1.43060,	1.56275,	1.62688,	1.45378,	1.19533,	0.95846,	0.80308,	0.62791,	0.44154,	0.30704,	0.36560,	0.43243,	0.47360
0.61615,	0.77927,	0.96881,	1.12151,	1.07893,	1.08837,	1.04570,	0.99768,	0.91094,	0.93324,	0.99240,	1.08124,	1.23824,	1.43888,	1.56126,	1.66728,	1.66620,	1.68371,	1.71190,	1.84655,	1.72255,	1.65322,	1.58231,	1.66985,	1.71303,	1.83278,	1.87149,	1.85819,	1.93880,	2.12269,	2.33705,	2.53831,	2.47485,	2.42043,	2.42275,	2.47550,	2.35734,	2.35334,	2.31900,	2.33520,	2.26580,	2.18182,	2.09680,	2.02988,	1.97324,	1.84282,	1.60209,	1.41045,	1.21225,	0.98988,	0.71793,	0.53669,	0.23177,	0.06660,	-0.05638,	-0.06658,	-0.03065,	-0.00548,	-0.14791,	-0.33223,	-0.30131,	-0.16765,	-0.14286,	-0.11783,	-0.29367,	-0.50017,	-0.64693,	-0.74540,	-0.90852,	-0.89024,	-0.88069,	-0.82879,	-0.86636,	-0.93448,	-1.01942,	-1.24478,	-1.47132,	-1.59828,	-1.67857,	-1.62538,	-1.66358,	-1.77251,	-1.86196,	-1.80064,	-1.83490,	-1.75859,	-1.67658,	-1.58729,	-1.59382,	-1.41565,	-1.23447,	-1.28738,	-1.40341,	-1.44523,	-1.53977,	-1.61108,	-1.76926,	-1.91916,	-1.95753,	-1.84793,	-1.85950,	-1.88604,	-1.96706,	-1.96307,	-1.98814,	-2.06488,	-2.08611,	-2.09190,	-1.98112,	-1.80158,	-1.78928,	-1.75832,	-1.80028,	-1.88117,	-1.93025,	-1.80134,	-1.66771,	-1.47557,	-1.27424,	-1.01891,	-0.66471,	-0.28736,	-0.07012,	-0.06111,	-0.01000,	0.23876,	0.45674,	0.65896,	0.89263,	1.11128,	1.30754,	1.49123,	1.45641,	1.40078,	1.30233,	1.06803,	0.80955,	0.60074,	0.60186,	0.66102,	0.65487,	0.63382,	0.60311,	0.61909,	0.60962,	0.57327,	0.49467,	0.41047,	0.23984,	0.21050,	0.29564,	0.22832,	0.08765,	0.01941,	-0.00575,	-0.17227,	-0.25601,	-0.14489,	-0.04608,	0.04402,	0.07338,	-0.08526,	-0.24820,	-0.26753,	-0.37468,	-0.50643,	-0.57060,	-0.59226,	-0.50379,	-0.47617,	-0.48016,	-0.59984,	-0.81464,	-0.98585,	-1.13729,	-1.25303,	-1.25705,	-1.29359,	-1.32453,	-1.23265,	-1.06057,	-0.96906,	-0.89808,	-0.99551,	-1.15032,	-1.28203,	-1.41109,	-1.74021,	-1.91660,	-1.84029,	-1.78395,	-1.73750,	-1.66660,	-1.64277,	-1.56897,	-1.45513,	-1.36001,	-1.24536,	-0.96642,	-0.72942,	-0.60528,	-0.63452,	-0.56596,	-0.47618,	-0.43738,	-0.35935,	-0.33082,	-0.41844,	-0.45702,	-0.40000,	-0.29686,	-0.29446,	-0.31264,	-0.35856,	-0.21645,	-0.14989,	-0.04889,	0.05129,	0.16531,	0.02319,	-0.17110,	-0.31714,	-0.49287,	-0.60956,	-0.62743,	-0.69742,	-0.67769,	-0.55924,	-0.38707,	-0.31582,	-0.25139,	-0.31677,	-0.38711,	-0.48757,	-0.44550,	-0.31864,	-0.23015,	-0.17239,	-0.23627,	-0.35659,	-0.30482,	-0.29294,	-0.32876,	-0.38699,	-0.35829,	-0.38965,	-0.34526,	-0.48103,	-0.53226,	-0.57211,	-0.55923,	-0.72214,	-0.89363,	-0.90815,	-0.92343,	-1.04751,	-1.09919,	-1.22766,	-1.25169,	-1.22496,	-1.25605,	-1.40871,	-1.38951,	-1.37828,	-1.29433,	-1.17424,	-0.97669,	-0.82154,	-0.70171,	-0.41215,	-0.11792,	-0.06343,	0.01007,	0.09634,	0.20922,	0.29537,	0.47898,	0.57413,	0.80662,	0.90255,	0.99256,	0.99408,	1.07212,	1.05493,	0.97780,	1.01953,	1.11740,	1.15748,	1.30952,	1.34269,	1.31603,	1.27054,	1.27226,	1.23182,	1.37710,	1.48700,	1.57777,	1.45378,	1.23604,	1.07197,	0.96072,	0.83004,	0.66116,	0.42078,	0.34962,	0.43239,	0.51570
0.51073,	0.75123,	0.89463,	1.06861,	1.00589,	0.92330,	0.89193,	0.88198,	0.83962,	0.93155,	0.91984,	0.94754,	1.07764,	1.40077,	1.60376,	1.59586,	1.56806,	1.63376,	1.63976,	1.78040,	1.69510,	1.66614,	1.66265,	1.66997,	1.70857,	1.80852,	1.84052,	1.86254,	2.02063,	2.15826,	2.30014,	2.47705,	2.46606,	2.47773,	2.37799,	2.45393,	2.41510,	2.37745,	2.27564,	2.24241,	2.12658,	2.04187,	1.90623,	1.86545,	1.82332,	1.73383,	1.50882,	1.20940,	0.97777,	0.80658,	0.53104,	0.38143,	0.21651,	0.14003,	0.02156,	-0.16631,	-0.18317,	-0.07604,	-0.11001,	-0.24522,	-0.18507,	-0.10157,	-0.09154,	-0.07311,	-0.30069,	-0.47650,	-0.70986,	-0.83034,	-0.91864,	-0.93588,	-0.95255,	-0.93444,	-0.99275,	-0.93528,	-0.96820,	-1.15965,	-1.38590,	-1.42854,	-1.38452,	-1.39812,	-1.47451,	-1.49309,	-1.55122,	-1.51489,	-1.57067,	-1.55800,	-1.49653,	-1.51206,	-1.55670,	-1.40225,	-1.27523,	-1.36442,	-1.44318,	-1.56910,	-1.74102,	-1.76067,	-1.85404,	-1.86309,	-1.96165,	-1.90892,	-1.86692,	-1.94363,	-2.00506,	-1.91627,	-1.94246,	-2.04355,	-2.18621,	-2.27857,	-2.25334,	-2.09420,	-2.00775,	-2.04991,	-2.09229,	-2.06731,	-2.15934,	-2.13571,	-2.00840,	-1.73507,	-1.41013,	-1.20499,	-0.90726,	-0.46466,	-0.14492,	-0.08152,	-0.00778,	0.18766,	0.34781,	0.58381,	0.83366,	1.13337,	1.27695,	1.31427,	1.30600,	1.27081,	1.19153,	1.00920,	0.74592,	0.61561,	0.67386,	0.74008,	0.74869,	0.79647,	0.92741,	0.89541,	0.76263,	0.73435,	0.63414,	0.53502,	0.40514,	0.37053,	0.45612,	0.31041,	0.09591,	0.00755,	-0.02951,	-0.14093,	-0.15552,	-0.08037,	-0.13433,	-0.09749,	-0.11861,	-0.21195,	-0.28959,	-0.29554,	-0.30024,	-0.47182,	-0.62286,	-0.63901,	-0.63296,	-0.66328,	-0.69941,	-0.87490,	-1.02618,	-1.14442,	-1.23572,	-1.44990,	-1.56550,	-1.46188,	-1.38548,	-1.30379,	-1.13858,	-1.01808,	-0.86259,	-0.99354,	-1.27239,	-1.38399,	-1.47775,	-1.72745,	-1.82717,	-1.75458,	-1.81589,	-1.87189,	-1.86062,	-1.75160,	-1.60384,	-1.57117,	-1.44248,	-1.30955,	-1.04120,	-0.73783,	-0.58829,	-0.55621,	-0.39716,	-0.36436,	-0.36833,	-0.33785,	-0.23131,	-0.28111,	-0.39123,	-0.30257,	-0.18126,	-0.19617,	-0.18894,	-0.24905,	-0.09168,	-0.01839,	-0.00232,	0.07259,	0.09481,	-0.05895,	-0.26159,	-0.41600,	-0.60114,	-0.65970,	-0.64848,	-0.69607,	-0.64091,	-0.60810,	-0.44938,	-0.40574,	-0.41455,	-0.44971,	-0.46685,	-0.58739,	-0.59233,	-0.63114,	-0.58315,	-0.47783,	-0.41459,	-0.51464,	-0.61242,	-0.58147,	-0.52855,	-0.61789,	-0.62969,	-0.64366,	-0.53729,	-0.57565,	-0.64816,	-0.62950,	-0.61258,	-0.77713,	-0.91498,	-0.86029,	-0.91650,	-1.10612,	-1.22310,	-1.35373,	-1.31496,	-1.37933,	-1.42411,	-1.53907,	-1.54469,	-1.52745,	-1.46036,	-1.39835,	-1.15990,	-1.01893,	-0.87358,	-0.60057,	-0.23595,	-0.07736,	-0.07533,	-0.01139,	0.19937,	0.34452,	0.60316,	0.72155,	0.91457,	1.03503,	0.99685,	0.98844,	1.14304,	1.23320,	1.19575,	1.21595,	1.21196,	1.19654,	1.30455,	1.32648,	1.40506,	1.36489,	1.45281,	1.45969,	1.47677,	1.47827,	1.54921,	1.43789,	1.29158,	1.06051,	0.88922,	0.74194,	0.66363,	0.49505,	0.27855,	0.30576,	0.47966
