-1.13807,	-1.23559,	-1.25650,	-1.28143,	-1.30813,	-1.39705,	-1.37747,	-1.24989,	-1.16257,	-1.16526,	-1.19325,	-1.26408,	-1.25499,	-1.27345,	-1.16171,	-0.95556,	-0.65365,	-0.44667,	-0.16005,	0.08974,	0.38790,	0.53972,	0.71755,	0.97956,	1.14268,	1.31972,	1.46642,	1.35125,	1.32064,	1.40112,	1.38600,	1.37510,	0.00000,	0.00000,	0.00000,	0.00000,	0.00000,	0.00000,	0.00000,	0.00000,	0.00000,	0.89243,	0.94121,	0.92298,	0.95958,	0.93652,	0.85430,	0.73008,	0.61841,	0.41021,	0.28822,	0.12147,	-0.01052,	-0.14958,	-0.20660,	-0.20145,	-0.43284,	-0.60576,	-0.56464,	-0.61085,	-0.56002,	-0.47705,	-0.59374,	-0.76494,	-0.93410,	-1.28766,	-1.54346,	-1.75545,	-1.99747,	-2.17625,	-2.33687,	-2.40960,	-2.47821,	-2.54898,	-2.61703,	-2.69919,	-2.70211,	-2.71899,	-2.76133,	-2.72374,	-2.62195,	-2.62503,	-2.68348,	-2.66290,	-2.55906,	-2.42368,	-2.33836,	-2.13830,	-2.02498,	-1.83220,	-1.44700,	-1.18921,	-0.93327,	-0.64506,	-0.64657,	-0.74839,	-0.71224,	-0.68956,	-0.73892,	-0.88018,	-1.04152,	-1.04700,	-1.08229,	-1.09583,	-1.12087,	-1.06636,	-0.98076,	-0.94167,	-0.91145,	-0.87865,	-0.89169,	-0.89238,	-0.83847,	-0.72165,	-0.66049,	-0.63164,	-0.79833,	-0.93176,	-1.09021,	-1.07437,	-1.15171,	-1.28135,	-1.19958,	-1.13424,	-1.19123,	-1.14429,	-1.15356,	-1.20774,	-1.20935,	-1.26413,	-1.29963,	-1.21753,	-1.15099,	-0.94826,	-0.78022,	-0.60946,	-0.55326,	-0.55217,	-0.50498,	-0.39071,	-0.22404,	-0.11289,	-0.16429,	-0.12456,	-0.04294,	0.01832,	-0.08904,	-0.15440,	-0.22669,	-0.14401,	-0.11024,	0.00967,	-0.02931,	0.00000,	0.00000,	0.00000,	0.00000,	0.00000,	0.00000,	0.00000,	-0.71897,	-0.84087,	-1.05657,	-1.29160,	-1.60394,	-1.75381,	-1.92770,	-2.07070,	-2.24059,	-2.36152,	-2.42207,	-2.50709,	-2.54987,	-2.47527,	-2.52022,	-2.60684,	-2.81770,	-2.92402,	-3.10386,	-3.17307,	-3.31397,	-3.36860,	-3.41515,	-3.22861,	-3.19260,	-3.24813,	-3.07081,	-2.85740,	-2.90636,	-2.87887,	-2.91264,	-3.05519,	-3.11922,	-3.09336,	-3.07540,	-2.93621,	-2.87844,	-2.71950,	-2.56798,	-2.43942,	-2.41177,	-2.48370,	-2.53344,	-2.47352,	-2.31874,	-2.09975,	-2.08593,	-2.11298,	-2.12124,	-2.00061,	-1.96948,	-1.91667,	-1.93048,	-1.87791,	-1.93499,	-1.79708,	-1.63048,	-1.52803,	-1.42046,	-1.32456,	-1.41191,	-1.38808,	-1.43227,	-1.66368,	-1.80802,	-1.80601,	-1.87575,	-1.86706,	-1.96444,	-1.96392,	-1.95225,	-1.98260,	-2.00090,	-1.94701,	-1.88050,	-1.89590,	-2.03755,	-2.02590,	-2.05720,	-2.00603,	-1.96307,	-1.83220,	-1.70052,	-1.50242,	-1.51970,	-1.51275,	-1.53309,	-1.46382,	-1.47641,	-1.63856,	-1.67295,	-1.58230,	-1.68587,	-1.69987,	-1.66190,	-1.80191,	-1.93390,	-1.92120,	-1.87486,	-1.67082,	-1.50686,	-1.40506,	-1.34475,	-1.26910,	-1.12878,	-0.97233,	-0.85289,	-0.72614,	-0.58452,	-0.32870,	-0.19568,	-0.19374,	-0.23728,	-0.26515,	-0.35327,	-0.30692,	-0.22879,	-0.10119,	-0.20312,	-0.33929,	-0.40383,	-0.52879,	-0.56740,	-0.43766,	-0.38629,	-0.20048,	0.05429,	0.07472,	0.01953,	0.08422,	0.04926,	0.00404,	-0.00990,	0.05437,	0.15156,	0.03715,	-0.18039,	-0.34914,	-0.46657,	-0.53689,	-0.60606,	-0.59778,	-0.51143,	-0.49108,	-0.55721,	-0.55981,	-0.52259
-1.09331,	-1.23922,	-1.30468,	-1.37892,	-1.45075,	-1.56009,	-1.53764,	-1.34277,	-1.22154,	-1.19312,	-1.12783,	-1.16167,	-1.18917,	-1.19877,	-1.06758,	-0.83040,	-0.48972,	-0.30672,	-0.05974,	0.18293,	0.48607,	0.70532,	0.93340,	1.16704,	1.32346,	1.48193,	1.57045,	1.48600,	1.45741,	1.42401,	1.37702,	1.35538,	0.00000,	0.00000,	0.00000,	0.00000,	0.00000,	0.00000,	0.00000,	0.00000,	0.00000,	0.98762,	1.01865,	0.91517,	0.82730,	0.78648,	0.76339,	0.69738,	0.64344,	0.43486,	0.31611,	0.17053,	0.03966,	-0.03031,	-0.02000,	-0.01066,	-0.23440,	-0.42707,	-0.41634,	-0.39945,	-0.30433,	-0.31482,	-0.47796,	-0.65969,	-0.84498,	-1.20882,	-1.47994,	-1.67265,	-1.87344,	-2.02632,	-2.10733,	-2.09198,	-2.17380,	-2.31452,	-2.41160,	-2.52194,	-2.59046,	-2.61925,	-2.66552,	-2.64791,	-2.52202,	-2.52615,	-2.58490,	-2.50737,	-2.36931,	-2.20137,	-2.12234,	-2.03241,	-2.03516,	-1.90533,	-1.57779,	-1.33406,	-1.05406,	-0.81448,	-0.84441,	-0.91892,	-0.86903,	-0.86740,	-0.96595,	-1.11802,	-1.24518,	-1.21298,	-1.23154,	-1.22474,	-1.24535,	-1.20215,	-1.07270,	-0.99840,	-0.98467,	-0.91546,	-0.84287,	-0.83909,	-0.79584,	-0.69193,	-0.64092,	-0.55120,	-0.68242,	-0.80596,	-0.89912,	-0.86898,	-0.94941,	-1.05687,	-0.99218,	-0.93196,	-0.94858,	-0.96182,	-1.05204,	-1.09303,	-1.10229,	-1.16838,	-1.17515,	-1.05434,	-0.99864,	-0.83661,	-0.67426,	-0.44784,	-0.31979,	-0.32814,	-0.31187,	-0.22907,	-0.11692,	0.00352,	0.04817,	0.14951,	0.27957,	0.34948,	0.17041,	0.08955,	-0.00369,	0.06766,	0.14904,	0.22303,	0.12890,	-0.03648,	0.00000,	0.00000,	0.00000,	0.00000,	0.00000,	0.00000,	0.00000,	-0.75144,	-0.95394,	-1.16981,	-1.47581,	-1.63681,	-1.81788,	-1.96242,	-2.11750,	-2.28665,	-2.37387,	-2.50413,	-2.61705,	-2.51657,	-2.42529,	-2.37816,	-2.50142,	-2.58532,	-2.79359,	-2.83362,	-2.96346,	-3.04872,	-3.08844,	-2.99193,	-3.08545,	-3.19016,	-3.07592,	-2.89424,	-2.88679,	-2.86193,	-2.89830,	-2.95843,	-3.01745,	-3.01560,	-3.01794,	-2.84271,	-2.75070,	-2.62335,	-2.55882,	-2.47980,	-2.42028,	-2.51158,	-2.56102,	-2.49555,	-2.39126,	-2.20964,	-2.17677,	-2.20088,	-2.22251,	-2.09117,	-2.09099,	-2.03754,	-2.01728,	-1.94051,	-1.94626,	-1.83302,	-1.75852,	-1.71339,	-1.67389,	-1.61451,	-1.59940,	-1.51645,	-1.61682,	-1.82625,	-1.96897,	-1.95991,	-2.03565,	-2.02120,	-2.12273,	-2.14311,	-2.14937,	-2.18638,	-2.12963,	-2.01516,	-1.85237,	-1.72936,	-1.82537,	-1.82734,	-1.81472,	-1.74727,	-1.72147,	-1.64185,	-1.64051,	-1.56109,	-1.63847,	-1.67848,	-1.65759,	-1.56098,	-1.63080,	-1.78293,	-1.74747,	-1.62840,	-1.68680,	-1.71986,	-1.78216,	-1.90377,	-2.00589,	-2.02069,	-2.06357,	-1.90018,	-1.72741,	-1.60737,	-1.52476,	-1.40823,	-1.18162,	-1.01168,	-0.92007,	-0.79617,	-0.68853,	-0.44604,	-0.24384,	-0.17876,	-0.15668,	-0.10015,	-0.18789,	-0.15260,	-0.06487,	0.02525,	-0.05670,	-0.16204,	-0.24485,	-0.37908,	-0.46283,	-0.41818,	-0.38171,	-0.19366,	-0.01872,	-0.00533,	-0.04873,	0.00214,	-0.08110,	-0.20402,	-0.27059,	-0.24021,	-0.16139,	-0.23012,	-0.37397,	-0.51623,	-0.60019,	-0.58874,	-0.60766,	-0.58322,	-0.44927,	-0.40260,	-0.47435,	-0.47882,	-0.48126
-1.02387,	-1.14307,	-1.28988,	-1.44506,	-1.55797,	-1.69928,	-1.60722,	-1.42281,	-1.31594,	-1.29203,	-1.14187,	-1.06691,	-1.19823,	-1.27294,	-1.06902,	-0.82931,	-0.49774,	-0.28209,	-0.03074,	0.26360,	0.48016,	0.71334,	1.04770,	1.32668,	1.47257,	1.61810,	1.58737,	1.43416,	1.41830,	1.37404,	1.42068,	1.35220,	0.00000,	0.00000,	0.00000,	0.00000,	0.00000,	0.00000,	0.00000,	0.00000,	0.00000,	0.00000,	1.12292,	1.05195,	0.79373,	0.60898,	0.65273,	0.61224,	0.53369,	0.37048,	0.31687,	0.29372,	0.14125,	0.04915,	0.11104,	0.16543,	-0.00451,	-0.12817,	-0.15060,	-0.21355,	-0.15116,	-0.20525,	-0.29357,	-0.52595,	-0.79600,	-1.06511,	-1.29237,	-1.42738,	-1.53797,	-1.70124,	-1.74471,	-1.76683,	-1.97999,	-2.19732,	-2.30079,	-2.35556,	-2.54021,	-2.70822,	-2.71281,	-2.67464,	-2.55708,	-2.48319,	-2.44030,	-2.24815,	-2.14848,	-2.10653,	-2.04886,	-1.97835,	-2.00042,	-1.85219,	-1.57646,	-1.45840,	-1.22582,	-1.01018,	-0.93445,	-0.96713,	-1.00080,	-0.96050,	-1.07166,	-1.23160,	-1.26844,	-1.20887,	-1.19515,	-1.19357,	-1.32766,	-1.31922,	-1.15316,	-0.97755,	-1.02377,	-1.04751,	-0.86406,	-0.77746,	-0.74768,	-0.64206,	-0.56509,	-0.39320,	-0.51539,	-0.73423,	-0.78665,	-0.74118,	-0.79503,	-0.83665,	-0.77209,	-0.84099,	-0.89932,	-0.92496,	-0.90313,	-0.83953,	-0.93956,	-0.97659,	-0.96875,	-0.87977,	-0.79888,	-0.67403,	-0.52630,	-0.29647,	-0.27504,	-0.31943,	-0.31371,	-0.16138,	-0.07229,	-0.02321,	0.14974,	0.35834,	0.47029,	0.49126,	0.29099,	0.26714,	0.18998,	0.15796,	0.25627,	0.31249,	0.23169,	0.13311,	0.00000,	0.00000,	0.00000,	0.00000,	0.00000,	0.00000,	0.00000,	-0.57022,	-0.69645,	-0.90743,	-1.15259,	-1.31759,	-1.51914,	-1.69370,	-2.03566,	-2.28532,	-2.39107,	-2.44995,	-2.55091,	-2.56416,	-2.41259,	-2.19732,	-2.24040,	-2.28415,	-2.44538,	-2.44745,	-2.56935,	-2.79295,	-2.88926,	-2.89464,	-3.04163,	-3.14212,	-2.96867,	-2.83421,	-2.86548,	-2.84799,	-2.80305,	-2.71330,	-2.83659,	-2.81670,	-2.77119,	-2.63602,	-2.53222,	-2.45456,	-2.49131,	-2.44489,	-2.51092,	-2.61910,	-2.64338,	-2.51445,	-2.41015,	-2.43476,	-2.45835,	-2.38261,	-2.38699,	-2.23834,	-2.18946,	-2.08528,	-1.97786,	-1.96673,	-1.96889,	-1.86638,	-1.82387,	-1.81718,	-1.75307,	-1.76117,	-1.75500,	-1.62896,	-1.67941,	-1.75335,	-1.96373,	-1.96751,	-1.98213,	-2.02985,	-2.16303,	-2.18225,	-2.19564,	-2.15488,	-2.13610,	-2.03616,	-1.82667,	-1.52719,	-1.45413,	-1.55177,	-1.60298,	-1.50313,	-1.52205,	-1.52605,	-1.62544,	-1.67754,	-1.77677,	-1.93682,	-1.89967,	-1.72180,	-1.76112,	-1.88800,	-1.74692,	-1.64417,	-1.75391,	-1.79904,	-1.87956,	-1.89469,	-2.04408,	-2.12193,	-2.15184,	-2.05117,	-1.88488,	-1.69193,	-1.58053,	-1.40657,	-1.26289,	-1.23551,	-1.20889,	-1.01504,	-0.78610,	-0.61784,	-0.46368,	-0.28436,	-0.18742,	-0.07762,	-0.10208,	-0.04269,	0.09759,	0.07884,	-0.04639,	-0.08614,	-0.10237,	-0.20932,	-0.25637,	-0.29294,	-0.37637,	-0.22521,	-0.07654,	0.01487,	-0.07936,	-0.08719,	-0.09257,	-0.22886,	-0.33921,	-0.33624,	-0.32529,	-0.33008,	-0.47033,	-0.69081,	-0.78840,	-0.70507,	-0.57835,	-0.58751,	-0.55544,	-0.46702,	-0.50839,	-0.51020,	-0.44513
-0.86988,	-1.03694,	-1.23538,	-1.49802,	-1.66968,	-1.84231,	-1.73777,	-1.43150,	-1.24000,	-1.29011,	-1.17671,	-1.11250,	-1.24415,	-1.32955,	-1.16759,	-0.93350,	-0.61911,	-0.38088,	-0.08561,	0.18403,	0.35161,	0.62777,	1.05540,	1.43372,	1.55626,	1.51193,	1.38077,	1.31348,	1.39559,	1.36187,	1.36162,	1.35534,	1.47250,	0.00000,	0.00000,	0.00000,	0.00000,	0.00000,	0.00000,	0.00000,	0.00000,	0.00000,	1.18226,	1.06204,	0.80950,	0.62308,	0.61736,	0.54558,	0.41463,	0.26937,	0.29775,	0.38239,	0.33052,	0.28470,	0.32123,	0.39315,	0.27932,	0.12242,	0.06303,	0.01791,	0.04211,	-0.09758,	-0.24555,	-0.40645,	-0.60020,	-0.81769,	-0.98344,	-1.07538,	-1.17372,	-1.34308,	-1.42666,	-1.48853,	-1.72105,	-2.06578,	-2.30698,	-2.40295,	-2.59963,	-2.75793,	-2.76138,	-2.73755,	-2.65774,	-2.55004,	-2.37552,	-2.12430,	-2.03816,	-2.05237,	-2.02113,	-1.87653,	-1.79913,	-1.69590,	-1.56483,	-1.51580,	-1.31931,	-1.13306,	-1.04264,	-0.97921,	-0.96389,	-0.99026,	-1.11190,	-1.25370,	-1.28273,	-1.22336,	-1.23939,	-1.20920,	-1.23109,	-1.22960,	-1.16395,	-1.01577,	-1.06923,	-1.04680,	-0.81047,	-0.62427,	-0.53665,	-0.47412,	-0.41959,	-0.28609,	-0.39935,	-0.58732,	-0.62152,	-0.56259,	-0.58722,	-0.67870,	-0.71346,	-0.79278,	-0.79903,	-0.83155,	-0.82166,	-0.66014,	-0.64490,	-0.67146,	-0.67688,	-0.66636,	-0.69414,	-0.63682,	-0.55549,	-0.33902,	-0.25129,	-0.29601,	-0.38079,	-0.26824,	-0.20237,	-0.08745,	0.19642,	0.45965,	0.55338,	0.46790,	0.26784,	0.31741,	0.32314,	0.32753,	0.37381,	0.37419,	0.32651,	0.23807,	0.00000,	0.00000,	0.00000,	0.00000,	0.00000,	0.00000,	0.00000,	-0.34773,	-0.43874,	-0.61071,	-0.82959,	-0.96477,	-1.20496,	-1.45120,	-1.80341,	-2.08765,	-2.30220,	-2.32566,	-2.38213,	-2.40755,	-2.28712,	-2.05889,	-2.01797,	-2.02458,	-2.13422,	-2.12896,	-2.29713,	-2.55551,	-2.70471,	-2.77369,	-2.87482,	-2.99527,	-2.90405,	-2.75320,	-2.70940,	-2.67138,	-2.66428,	-2.56975,	-2.57555,	-2.54803,	-2.50190,	-2.39351,	-2.38332,	-2.35813,	-2.47227,	-2.52256,	-2.58694,	-2.65604,	-2.72121,	-2.62151,	-2.57148,	-2.68069,	-2.70747,	-2.55496,	-2.44567,	-2.27616,	-2.23971,	-2.12433,	-1.99593,	-1.91781,	-1.86005,	-1.77805,	-1.74347,	-1.83457,	-1.89072,	-1.90288,	-1.79750,	-1.64382,	-1.73416,	-1.77548,	-1.81063,	-1.76002,	-1.76785,	-1.87222,	-2.11532,	-2.15789,	-2.14835,	-2.01401,	-1.86340,	-1.73729,	-1.63599,	-1.33974,	-1.17693,	-1.22027,	-1.27197,	-1.24358,	-1.32631,	-1.43701,	-1.65366,	-1.79408,	-1.94640,	-2.12730,	-2.04905,	-1.82547,	-1.76160,	-1.84111,	-1.78874,	-1.75401,	-1.82989,	-1.87716,	-2.02961,	-2.07193,	-2.11532,	-2.13630,	-2.16197,	-2.12470,	-2.06594,	-1.86201,	-1.69343,	-1.52357,	-1.38916,	-1.42454,	-1.49537,	-1.28435,	-0.95001,	-0.73202,	-0.59738,	-0.43734,	-0.29542,	-0.11577,	-0.07920,	0.00986,	0.09677,	0.00878,	-0.08803,	-0.07915,	0.02067,	-0.05511,	-0.21524,	-0.32074,	-0.34626,	-0.16354,	-0.08049,	-0.07947,	-0.12651,	-0.06348,	0.00664,	-0.04203,	-0.19307,	-0.31725,	-0.42327,	-0.46947,	-0.53263,	-0.68499,	-0.84324,	-0.83877,	-0.71148,	-0.68196,	-0.64317,	-0.55750,	-0.55139,	-0.52544,	-0.42236
-0.89990,	-1.11348,	-1.31572,	-1.46067,	-1.65658,	-1.78665,	-1.66640,	-1.48775,	-1.26805,	-1.24514,	-1.14480,	-1.22596,	-1.30085,	-1.35359,	-1.28915,	-1.00484,	-0.77817,	-0.53263,	-0.14337,	0.07867,	0.22726,	0.53680,	0.85955,	1.20174,	1.31639,	1.33061,	1.24133,	1.24472,	1.42401,	1.47679,	1.39189,	1.34259,	1.39337,	0.00000,	0.00000,	0.00000,	0.00000,	0.00000,	0.00000,	0.00000,	0.00000,	0.00000,	0.00000,	1.01618,	0.82000,	0.70514,	0.55821,	0.48908,	0.32386,	0.21457,	0.36123,	0.48689,	0.51032,	0.54901,	0.47483,	0.43536,	0.33361,	0.27598,	0.24172,	0.18607,	0.19058,	0.05463,	-0.12549,	-0.23072,	-0.36732,	-0.56410,	-0.71180,	-0.76019,	-0.89366,	-1.07205,	-1.10221,	-1.31555,	-1.62017,	-1.94662,	-2.21559,	-2.42641,	-2.62317,	-2.67096,	-2.72178,	-2.69206,	-2.70008,	-2.68893,	-2.43915,	-2.20857,	-2.10438,	-1.99797,	-1.94308,	-1.77884,	-1.59409,	-1.43565,	-1.39091,	-1.46670,	-1.34485,	-1.16740,	-1.06996,	-1.00393,	-1.00085,	-1.07258,	-1.15381,	-1.19903,	-1.23157,	-1.26716,	-1.22903,	-1.25766,	-1.25413,	-1.14489,	-1.08615,	-1.02571,	-1.03976,	-0.82558,	-0.61331,	-0.36675,	-0.28244,	-0.35586,	-0.28474,	-0.26105,	-0.39761,	-0.47138,	-0.52051,	-0.52197,	-0.51612,	-0.57604,	-0.56654,	-0.61914,	-0.54640,	-0.53978,	-0.57635,	-0.50250,	-0.50717,	-0.55810,	-0.55627,	-0.56657,	-0.63571,	-0.68623,	-0.52775,	-0.36323,	-0.33143,	-0.26904,	-0.29236,	-0.27229,	-0.31436,	-0.11198,	0.12844,	0.38022,	0.48020,	0.30991,	0.25900,	0.38701,	0.46921,	0.56146,	0.50218,	0.33617,	0.25488,	0.17793,	0.00000,	0.00000,	0.00000,	0.00000,	0.00000,	0.00000,	0.00000,	-0.31242,	-0.37861,	-0.47631,	-0.57053,	-0.72797,	-0.88191,	-1.16648,	-1.56289,	-1.74682,	-1.92518,	-1.98766,	-2.16425,	-2.15023,	-2.13417,	-2.02039,	-1.93863,	-2.00793,	-2.02196,	-1.98001,	-2.17397,	-2.37177,	-2.50064,	-2.61842,	-2.65082,	-2.74749,	-2.64754,	-2.59957,	-2.54824,	-2.46479,	-2.43451,	-2.41828,	-2.43289,	-2.44524,	-2.36700,	-2.24350,	-2.21084,	-2.27139,	-2.31783,	-2.43821,	-2.66775,	-2.72975,	-2.77034,	-2.73495,	-2.82853,	-2.82474,	-2.76274,	-2.57995,	-2.32930,	-2.25282,	-2.24055,	-2.11682,	-2.03361,	-1.87597,	-1.73910,	-1.76157,	-1.74254,	-1.83708,	-1.81314,	-1.84236,	-1.73583,	-1.59865,	-1.66240,	-1.72752,	-1.70376,	-1.65788,	-1.66051,	-1.75105,	-1.88315,	-1.95269,	-1.84652,	-1.62793,	-1.56529,	-1.43369,	-1.33114,	-1.11305,	-1.06065,	-0.99511,	-1.00429,	-1.08035,	-1.16333,	-1.43300,	-1.68879,	-1.77391,	-1.95001,	-2.10370,	-2.01658,	-1.93791,	-1.87003,	-1.88991,	-1.77695,	-1.81994,	-1.92751,	-1.96395,	-2.06920,	-2.15542,	-2.20452,	-2.20493,	-2.19824,	-2.19737,	-2.14565,	-2.05094,	-1.86168,	-1.65767,	-1.64371,	-1.64444,	-1.58363,	-1.31493,	-1.02723,	-0.76010,	-0.62640,	-0.58623,	-0.42417,	-0.29382,	-0.23913,	-0.07738,	-0.02713,	-0.08146,	-0.06034,	-0.10560,	-0.03479,	-0.11795,	-0.23699,	-0.35753,	-0.36144,	-0.14201,	-0.03660,	-0.08930,	-0.11505,	-0.02478,	0.09080,	0.10518,	-0.01807,	-0.27772,	-0.49603,	-0.55747,	-0.71102,	-0.84495,	-0.92112,	-0.92374,	-0.92450,	-0.85816,	-0.68203,	-0.58693,	-0.47693,	-0.47404,	-0.45223
-0.95890,	-1.21024,	-1.40570,	-1.36275,	-1.45184,	-1.66078,	-1.64038,	-1.55302,	-1.36512,	-1.33702,	-1.24096,	-1.20778,	-1.22492,	-1.29163,	-1.23115,	-0.96520,	-0.77891,	-0.52226,	-0.13218,	0.09641,	0.21487,	0.38443,	0.59899,	0.90652,	1.02641,	1.03739,	1.01263,	1.06263,	1.26243,	1.31663,	1.21486,	1.20527,	1.25841,	0.00000,	0.00000,	0.00000,	0.00000,	0.00000,	0.00000,	0.00000,	0.00000,	0.00000,	0.00000,	1.05595,	0.89253,	0.72306,	0.51270,	0.40779,	0.27973,	0.26500,	0.45113,	0.59218,	0.58710,	0.54893,	0.46931,	0.45187,	0.37545,	0.28885,	0.23431,	0.21373,	0.24259,	0.11098,	-0.05136,	-0.06922,	-0.14437,	-0.34453,	-0.52991,	-0.55972,	-0.62714,	-0.85675,	-0.96553,	-1.19861,	-1.50941,	-1.84287,	-2.11986,	-2.26717,	-2.39414,	-2.45911,	-2.53594,	-2.54891,	-2.61625,	-2.65576,	-2.46621,	-2.25458,	-2.11820,	-1.98387,	-1.86477,	-1.64152,	-1.43146,	-1.34699,	-1.41376,	-1.52706,	-1.45147,	-1.31770,	-1.22829,	-1.13053,	-1.07694,	-1.10520,	-1.15629,	-1.12613,	-1.06744,	-1.19008,	-1.27282,	-1.32646,	-1.31997,	-1.21242,	-1.17642,	-1.05319,	-0.87496,	-0.58730,	-0.38003,	-0.17754,	-0.18603,	-0.28763,	-0.19541,	-0.18629,	-0.30606,	-0.40725,	-0.48079,	-0.42108,	-0.36006,	-0.43351,	-0.45576,	-0.44652,	-0.33335,	-0.32949,	-0.43391,	-0.44731,	-0.48048,	-0.55287,	-0.54948,	-0.51096,	-0.46368,	-0.54561,	-0.47910,	-0.33149,	-0.29924,	-0.22381,	-0.25446,	-0.23736,	-0.20039,	-0.06573,	0.07365,	0.27748,	0.35578,	0.26134,	0.33119,	0.49609,	0.60969,	0.63173,	0.45336,	0.26698,	0.15869,	0.02340,	0.00000,	0.00000,	0.00000,	0.00000,	0.00000,	0.00000,	0.00000,	-0.29484,	-0.36771,	-0.41029,	-0.34068,	-0.48125,	-0.72655,	-0.99971,	-1.30335,	-1.42553,	-1.62422,	-1.75988,	-1.93237,	-1.98331,	-2.03772,	-1.98855,	-1.95622,	-2.02555,	-1.97680,	-1.87670,	-1.99199,	-2.18137,	-2.33305,	-2.37228,	-2.34218,	-2.44134,	-2.47964,	-2.52955,	-2.50866,	-2.41648,	-2.35924,	-2.32657,	-2.31746,	-2.33368,	-2.24246,	-2.09239,	-1.93515,	-1.98867,	-2.15346,	-2.34954,	-2.62173,	-2.75602,	-2.89006,	-2.91533,	-2.90525,	-2.81067,	-2.68987,	-2.49415,	-2.26763,	-2.23328,	-2.21123,	-2.07746,	-1.97725,	-1.84550,	-1.77909,	-1.79350,	-1.71012,	-1.73296,	-1.74394,	-1.77762,	-1.69051,	-1.57610,	-1.62612,	-1.68319,	-1.64067,	-1.61036,	-1.62864,	-1.66361,	-1.56572,	-1.53713,	-1.51573,	-1.38878,	-1.39484,	-1.28170,	-1.20167,	-1.04599,	-0.92068,	-0.82776,	-0.84910,	-0.92713,	-1.04157,	-1.35646,	-1.57243,	-1.61252,	-1.74435,	-1.91631,	-1.98449,	-2.00251,	-1.93571,	-1.92924,	-1.85911,	-1.92372,	-2.04473,	-2.07246,	-2.14029,	-2.20928,	-2.23251,	-2.22158,	-2.22725,	-2.23969,	-2.10273,	-2.02314,	-1.98657,	-1.87745,	-1.86475,	-1.78570,	-1.66696,	-1.42569,	-1.08116,	-0.80903,	-0.72463,	-0.71325,	-0.60806,	-0.52447,	-0.43498,	-0.24510,	-0.11014,	-0.08311,	-0.09221,	-0.14914,	-0.08450,	-0.17773,	-0.34380,	-0.49423,	-0.50457,	-0.28893,	-0.17954,	-0.19579,	-0.12856,	-0.00368,	0.08828,	0.05133,	-0.04455,	-0.25775,	-0.57717,	-0.76073,	-0.94846,	-1.07742,	-1.14221,	-1.15449,	-1.09568,	-0.95083,	-0.72633,	-0.56679,	-0.42987,	-0.43836,	-0.43916
-0.95870,	-1.21360,	-1.37812,	-1.33696,	-1.34211,	-1.43895,	-1.55500,	-1.54567,	-1.35549,	-1.28476,	-1.25827,	-1.20909,	-1.16905,	-1.24777,	-1.21207,	-0.94857,	-0.79152,	-0.59661,	-0.31730,	-0.06423,	0.02858,	0.14368,	0.36628,	0.61580,	0.75795,	0.82224,	0.85122,	0.93023,	1.12174,	1.13120,	1.01390,	1.09548,	1.14276,	1.24673,	0.00000,	0.00000,	0.00000,	0.00000,	0.00000,	0.00000,	0.00000,	0.00000,	0.00000,	1.02942,	0.84172,	0.57758,	0.31824,	0.24532,	0.18727,	0.21009,	0.34202,	0.48246,	0.41288,	0.31597,	0.34797,	0.38085,	0.36694,	0.32471,	0.25891,	0.26764,	0.33449,	0.22415,	0.09225,	0.17329,	0.10334,	-0.11828,	-0.31688,	-0.45958,	-0.54259,	-0.64733,	-0.77886,	-1.00824,	-1.22672,	-1.50757,	-1.86076,	-2.10991,	-2.22222,	-2.33533,	-2.46492,	-2.47100,	-2.51537,	-2.57723,	-2.50538,	-2.32657,	-2.17760,	-2.04276,	-1.78167,	-1.51535,	-1.31297,	-1.26758,	-1.41558,	-1.52913,	-1.46002,	-1.35489,	-1.27845,	-1.12430,	-1.02679,	-0.99938,	-0.98344,	-0.99686,	-0.99445,	-1.05685,	-1.17248,	-1.29351,	-1.26083,	-1.16192,	-1.17346,	-1.10623,	-0.81774,	-0.49490,	-0.30444,	-0.13621,	-0.19162,	-0.32053,	-0.27238,	-0.25885,	-0.32907,	-0.47322,	-0.46601,	-0.33410,	-0.22489,	-0.23036,	-0.24555,	-0.18786,	-0.05455,	-0.06146,	-0.23095,	-0.30134,	-0.37408,	-0.49548,	-0.43493,	-0.37360,	-0.33188,	-0.31525,	-0.26344,	-0.23056,	-0.14346,	-0.05716,	-0.13642,	-0.23135,	-0.16994,	-0.07273,	-0.02086,	0.14061,	0.24479,	0.20620,	0.29010,	0.43895,	0.56317,	0.44665,	0.26229,	0.11934,	-0.01088,	-0.13459,	0.00000,	0.00000,	0.00000,	0.00000,	0.00000,	0.00000,	0.00000,	-0.20273,	-0.23217,	-0.26299,	-0.25370,	-0.32904,	-0.51208,	-0.82474,	-0.98239,	-1.02915,	-1.24380,	-1.58031,	-1.86600,	-1.99317,	-2.10783,	-2.08874,	-2.03380,	-2.10470,	-2.08244,	-1.97754,	-1.97483,	-2.16672,	-2.23003,	-2.14627,	-2.09440,	-2.13959,	-2.25259,	-2.38514,	-2.39382,	-2.29884,	-2.19901,	-2.09839,	-2.03881,	-2.10380,	-2.01446,	-1.88574,	-1.78786,	-1.79979,	-1.92038,	-2.22460,	-2.45186,	-2.57720,	-2.75938,	-2.95110,	-2.96960,	-2.82211,	-2.67304,	-2.47902,	-2.25136,	-2.27666,	-2.30316,	-2.19761,	-2.03812,	-1.96943,	-1.90698,	-1.83980,	-1.69309,	-1.56445,	-1.53700,	-1.57428,	-1.51969,	-1.41772,	-1.43302,	-1.46902,	-1.43252,	-1.48996,	-1.49817,	-1.46693,	-1.33634,	-1.21548,	-1.10665,	-1.14911,	-1.21994,	-1.09348,	-0.99195,	-0.97088,	-0.90770,	-0.82258,	-0.87326,	-0.94778,	-1.01127,	-1.31492,	-1.51904,	-1.58105,	-1.64792,	-1.85966,	-2.01981,	-2.04691,	-2.01164,	-1.95205,	-1.83069,	-1.86690,	-1.97960,	-2.00631,	-2.08049,	-2.15082,	-2.12658,	-2.17599,	-2.20432,	-2.18565,	-2.08319,	-1.98981,	-1.90289,	-1.92476,	-1.92777,	-1.74937,	-1.56000,	-1.44950,	-1.24071,	-1.03650,	-1.00500,	-0.99892,	-0.87758,	-0.81061,	-0.73499,	-0.59026,	-0.33173,	-0.21448,	-0.22336,	-0.21365,	-0.19068,	-0.26265,	-0.37014,	-0.52711,	-0.57627,	-0.38625,	-0.26394,	-0.22915,	-0.05271,	0.05184,	0.09498,	0.00350,	-0.21454,	-0.42575,	-0.63701,	-0.90504,	-1.14286,	-1.22205,	-1.25119,	-1.34311,	-1.35842,	-1.17394,	-0.91582,	-0.71077,	-0.51554,	-0.48865,	-0.52221
-1.05690,	-1.17225,	-1.25980,	-1.32377,	-1.37443,	-1.38728,	-1.49008,	-1.54577,	-1.40021,	-1.21720,	-1.14364,	-1.10458,	-1.05642,	-1.07125,	-1.09352,	-1.04226,	-0.96558,	-0.75964,	-0.54821,	-0.41562,	-0.29709,	0.01390,	0.28625,	0.36420,	0.43295,	0.60247,	0.70103,	0.81399,	1.00356,	0.96542,	0.83291,	0.88395,	0.96472,	1.17248,	0.00000,	0.00000,	0.00000,	0.00000,	0.00000,	0.00000,	0.00000,	0.00000,	0.00000,	1.08068,	0.81616,	0.50792,	0.25382,	0.09790,	-0.00018,	0.07837,	0.23599,	0.26489,	0.14726,	0.18085,	0.31012,	0.28831,	0.26359,	0.35461,	0.35550,	0.35800,	0.44371,	0.36681,	0.25436,	0.26378,	0.14485,	0.00761,	-0.12813,	-0.36046,	-0.53278,	-0.56119,	-0.61994,	-0.82536,	-1.03437,	-1.21906,	-1.53382,	-1.89258,	-2.08206,	-2.22774,	-2.38177,	-2.45097,	-2.48399,	-2.39294,	-2.26262,	-2.22917,	-2.19210,	-1.97870,	-1.62043,	-1.42341,	-1.32255,	-1.26046,	-1.35249,	-1.42578,	-1.31528,	-1.21334,	-1.16372,	-1.07280,	-1.00461,	-0.87264,	-0.76555,	-0.85736,	-1.04748,	-1.09587,	-1.09986,	-1.19610,	-1.25600,	-1.17513,	-1.06615,	-0.99242,	-0.75435,	-0.43806,	-0.20479,	-0.10994,	-0.24086,	-0.30996,	-0.19091,	-0.23776,	-0.38266,	-0.43396,	-0.32999,	-0.27843,	-0.25284,	-0.15549,	-0.03075,	0.04705,	0.18444,	0.17973,	-0.00838,	-0.14417,	-0.28468,	-0.35416,	-0.19440,	-0.13492,	-0.19881,	-0.15004,	-0.09468,	-0.15790,	-0.15014,	-0.09606,	-0.09509,	-0.17995,	-0.12688,	0.02322,	0.10089,	0.13281,	0.09672,	0.08396,	0.25819,	0.35902,	0.33602,	0.21107,	0.12788,	-0.01732,	-0.23199,	-0.31422,	0.00000,	0.00000,	0.00000,	0.00000,	0.00000,	0.00000,	0.00000,	-0.16971,	-0.02690,	-0.01735,	-0.18937,	-0.29008,	-0.34728,	-0.61507,	-0.81265,	-0.86874,	-0.96231,	-1.33975,	-1.74044,	-1.93687,	-2.03871,	-2.08973,	-2.14872,	-2.19858,	-2.10534,	-2.03627,	-2.10493,	-2.17829,	-2.03897,	-1.93744,	-2.00485,	-2.01633,	-2.00506,	-2.13822,	-2.14546,	-2.06435,	-1.97473,	-1.87182,	-1.86471,	-1.90899,	-1.78180,	-1.71414,	-1.77737,	-1.84761,	-1.90692,	-2.16206,	-2.37040,	-2.43364,	-2.49996,	-2.74475,	-2.87796,	-2.78210,	-2.57039,	-2.39746,	-2.31577,	-2.38825,	-2.32154,	-2.17795,	-2.10854,	-2.02244,	-1.82765,	-1.74176,	-1.68725,	-1.50612,	-1.31866,	-1.33561,	-1.31659,	-1.20131,	-1.14738,	-1.16314,	-1.27012,	-1.36896,	-1.24091,	-1.15147,	-1.15661,	-1.08084,	-0.89349,	-0.94409,	-1.09211,	-1.01500,	-0.81300,	-0.78744,	-0.80287,	-0.77779,	-0.81491,	-0.92579,	-1.08432,	-1.36305,	-1.44541,	-1.49930,	-1.70114,	-1.92705,	-1.97975,	-2.00746,	-2.10907,	-2.07545,	-1.81071,	-1.75992,	-1.81382,	-1.82958,	-1.96955,	-2.10450,	-2.18074,	-2.29481,	-2.24098,	-2.12710,	-2.06049,	-1.94467,	-1.79698,	-1.84663,	-1.94034,	-1.82183,	-1.54260,	-1.42573,	-1.36189,	-1.30199,	-1.25145,	-1.20195,	-1.15792,	-1.12401,	-0.96348,	-0.77831,	-0.58561,	-0.44303,	-0.30216,	-0.25995,	-0.39770,	-0.48492,	-0.38388,	-0.43856,	-0.52308,	-0.36582,	-0.22549,	-0.19264,	-0.12374,	-0.07873,	0.03315,	-0.02837,	-0.36246,	-0.65987,	-0.80626,	-1.03919,	-1.31945,	-1.45607,	-1.44798,	-1.51003,	-1.56887,	-1.41210,	-1.09593,	-0.85208,	-0.73331,	-0.71572,	-0.63871
-0.99883,	-1.14373,	-1.16903,	-1.22764,	-1.33062,	-1.35719,	-1.42652,	-1.34169,	-1.25083,	-1.11332,	-1.05978,	-0.99048,	-1.02293,	-1.02365,	-1.09409,	-1.13249,	-0.99403,	-0.90765,	-0.83880,	-0.74250,	-0.48309,	-0.11975,	0.04739,	0.10038,	0.17504,	0.28195,	0.35812,	0.49679,	0.72139,	0.76807,	0.66549,	0.78395,	0.98302,	1.13080,	1.33043,	0.00000,	0.00000,	0.00000,	0.00000,	0.00000,	0.00000,	0.00000,	0.00000,	1.07214,	0.77394,	0.44229,	0.19449,	-0.01926,	-0.08066,	-0.09976,	-0.04314,	-0.02314,	0.02829,	0.16267,	0.22462,	0.25895,	0.32857,	0.43369,	0.42807,	0.41307,	0.50028,	0.47527,	0.31858,	0.26048,	0.17303,	-0.02027,	-0.12315,	-0.22438,	-0.35577,	-0.37084,	-0.46190,	-0.61242,	-0.82863,	-1.05135,	-1.32031,	-1.62289,	-1.86341,	-2.09253,	-2.27323,	-2.38528,	-2.25445,	-2.08915,	-2.07001,	-2.13743,	-2.07417,	-1.85476,	-1.64010,	-1.45176,	-1.28501,	-1.20205,	-1.26049,	-1.28557,	-1.12498,	-0.97637,	-0.96730,	-0.91399,	-0.80624,	-0.79770,	-0.77679,	-0.83623,	-1.05486,	-1.07983,	-1.03430,	-1.02184,	-1.08832,	-1.11456,	-0.95869,	-0.83436,	-0.69185,	-0.51042,	-0.24908,	-0.17140,	-0.11758,	-0.09315,	-0.07588,	-0.15499,	-0.22857,	-0.17743,	-0.19129,	-0.21167,	-0.14768,	-0.04663,	0.04866,	0.08253,	0.19717,	0.23785,	0.10356,	0.02926,	0.03870,	-0.03566,	0.00788,	0.06625,	0.00017,	0.05327,	0.08087,	0.03204,	0.03445,	-0.05961,	-0.06246,	-0.07756,	0.01545,	0.08843,	0.13133,	-0.00094,	-0.02890,	-0.02946,	0.00061,	0.05435,	0.07324,	0.10045,	-0.01066,	-0.14195,	-0.23839,	-0.28413,	0.00000,	0.00000,	0.00000,	0.00000,	0.00000,	0.00000,	0.00000,	-0.08752,	0.04401,	0.14626,	-0.01104,	-0.11132,	-0.13851,	-0.36520,	-0.59003,	-0.80923,	-0.88849,	-1.18662,	-1.50023,	-1.80450,	-1.91806,	-2.07221,	-2.10383,	-2.06893,	-2.10471,	-2.10813,	-2.13779,	-2.02199,	-1.90847,	-1.87892,	-1.90394,	-1.88642,	-1.83995,	-1.89854,	-1.87990,	-1.82793,	-1.83394,	-1.84978,	-1.76341,	-1.75198,	-1.71669,	-1.62414,	-1.66749,	-1.76481,	-1.83638,	-2.02602,	-2.12083,	-2.24625,	-2.34513,	-2.60346,	-2.72531,	-2.79372,	-2.59768,	-2.48753,	-2.38120,	-2.29939,	-2.26813,	-2.13610,	-2.03147,	-1.79583,	-1.62176,	-1.59711,	-1.54134,	-1.40876,	-1.26488,	-1.27514,	-1.23906,	-1.06907,	-0.94697,	-0.97575,	-1.02164,	-1.05715,	-0.98548,	-0.88485,	-0.94553,	-0.93058,	-0.75494,	-0.76130,	-0.79327,	-0.81891,	-0.67059,	-0.63198,	-0.58267,	-0.66372,	-0.73124,	-0.92756,	-1.10601,	-1.24029,	-1.39012,	-1.56056,	-1.82466,	-1.93635,	-1.95152,	-2.02175,	-2.08840,	-2.06003,	-1.89296,	-1.86372,	-1.85565,	-1.81367,	-1.91968,	-2.11262,	-2.16559,	-2.24210,	-2.27827,	-2.11038,	-1.94665,	-1.79278,	-1.67771,	-1.76831,	-1.83473,	-1.86259,	-1.68913,	-1.58948,	-1.48826,	-1.51801,	-1.47271,	-1.41855,	-1.37650,	-1.20181,	-1.05847,	-0.94319,	-0.83057,	-0.63145,	-0.45184,	-0.49210,	-0.58655,	-0.55156,	-0.38315,	-0.38597,	-0.45347,	-0.30883,	-0.15353,	-0.23172,	-0.27366,	-0.21361,	-0.17952,	-0.20592,	-0.43564,	-0.72229,	-0.86713,	-1.10046,	-1.30402,	-1.50203,	-1.60728,	-1.68697,	-1.68460,	-1.58098,	-1.33259,	-1.14060,	-1.09323,	-0.91322,	-0.72035
-1.04306,	-1.13397,	-1.14639,	-1.13527,	-1.21029,	-1.27941,	-1.34810,	-1.16245,	-1.03766,	-0.95717,	-0.95848,	-0.94608,	-1.00831,	-1.02652,	-1.04931,	-1.11451,	-1.05765,	-1.02654,	-0.98499,	-0.87635,	-0.63248,	-0.38697,	-0.31054,	-0.18793,	-0.08199,	-0.01200,	0.08286,	0.20304,	0.43388,	0.62127,	0.64068,	0.73771,	0.90648,	1.03307,	1.18695,	0.00000,	0.00000,	0.00000,	0.00000,	0.00000,	0.00000,	0.00000,	0.00000,	0.93176,	0.68099,	0.37756,	0.15954,	-0.09887,	-0.26774,	-0.35080,	-0.30066,	-0.23799,	-0.13680,	-0.02747,	0.04032,	0.21751,	0.37723,	0.47187,	0.47859,	0.44440,	0.49713,	0.51086,	0.37795,	0.23496,	0.08210,	-0.10709,	-0.18875,	-0.17861,	-0.18297,	-0.19697,	-0.34458,	-0.47988,	-0.63900,	-0.85789,	-1.07162,	-1.29464,	-1.52295,	-1.77172,	-1.94786,	-2.07871,	-2.01153,	-1.91127,	-1.96501,	-2.06231,	-2.01491,	-1.87272,	-1.70128,	-1.41919,	-1.15249,	-1.02680,	-1.03482,	-1.05919,	-0.94107,	-0.77305,	-0.73145,	-0.72778,	-0.72230,	-0.81278,	-0.86566,	-0.89981,	-0.99726,	-0.99362,	-0.97139,	-0.91329,	-0.90413,	-0.94631,	-0.83172,	-0.72105,	-0.63680,	-0.51049,	-0.24406,	-0.13060,	-0.07603,	-0.03872,	-0.00460,	-0.05546,	-0.09733,	-0.07503,	-0.12827,	-0.08985,	0.04222,	0.09501,	0.13093,	0.10691,	0.14362,	0.22045,	0.21483,	0.22207,	0.25613,	0.20140,	0.17371,	0.17522,	0.19139,	0.25134,	0.28500,	0.30071,	0.36269,	0.23809,	0.18858,	0.17892,	0.24001,	0.19752,	0.09956,	-0.11794,	-0.25630,	-0.30487,	-0.27971,	-0.21984,	-0.15388,	-0.07214,	-0.15700,	-0.18955,	-0.13569,	-0.15898,	0.00000,	0.00000,	0.00000,	0.00000,	0.00000,	0.00000,	0.00000,	-0.07139,	0.05460,	0.15170,	0.12224,	0.05858,	0.00236,	-0.20678,	-0.39404,	-0.64849,	-0.76760,	-1.01360,	-1.27627,	-1.59702,	-1.76053,	-1.94506,	-2.07012,	-2.08251,	-2.12878,	-2.12996,	-2.11841,	-1.98749,	-1.91207,	-1.84741,	-1.74817,	-1.71465,	-1.65519,	-1.64829,	-1.67681,	-1.67747,	-1.73438,	-1.84033,	-1.82207,	-1.78712,	-1.68896,	-1.55607,	-1.47326,	-1.52308,	-1.62097,	-1.79542,	-1.83219,	-2.02209,	-2.24450,	-2.51549,	-2.63410,	-2.73068,	-2.57695,	-2.47271,	-2.40403,	-2.28594,	-2.21390,	-2.07070,	-1.92391,	-1.67363,	-1.53383,	-1.46503,	-1.32616,	-1.25633,	-1.17388,	-1.16054,	-1.14908,	-0.98309,	-0.82272,	-0.83602,	-0.89592,	-0.91080,	-0.82909,	-0.75928,	-0.76540,	-0.73141,	-0.60352,	-0.60372,	-0.55270,	-0.58880,	-0.51976,	-0.49477,	-0.43699,	-0.53115,	-0.63347,	-0.83820,	-1.08052,	-1.25957,	-1.43675,	-1.64058,	-1.89690,	-2.01455,	-2.06922,	-2.10618,	-2.05305,	-2.03862,	-1.99837,	-2.00490,	-2.01076,	-1.92522,	-1.88725,	-2.00072,	-2.09018,	-2.18150,	-2.21892,	-2.07039,	-1.83812,	-1.67882,	-1.65819,	-1.78191,	-1.79353,	-1.81920,	-1.72692,	-1.67579,	-1.57002,	-1.58290,	-1.56290,	-1.51353,	-1.50520,	-1.37306,	-1.23497,	-1.11141,	-1.01851,	-0.86304,	-0.72388,	-0.72214,	-0.62734,	-0.47619,	-0.31104,	-0.28537,	-0.37077,	-0.29402,	-0.16144,	-0.28162,	-0.44926,	-0.47332,	-0.46439,	-0.48756,	-0.61345,	-0.79823,	-0.95225,	-1.20238,	-1.34435,	-1.49825,	-1.64379,	-1.74547,	-1.73798,	-1.65983,	-1.48613,	-1.34274,	-1.33974,	-1.19553,	-0.94629
-1.03258,	-1.03399,	-1.13036,	-1.20791,	-1.18447,	-1.19414,	-1.27350,	-1.14300,	-1.05504,	-0.97669,	-0.94516,	-0.96712,	-1.06212,	-1.12941,	-0.98419,	-0.92567,	-1.04253,	-1.06504,	-0.91305,	-0.82209,	-0.72933,	-0.62149,	-0.49554,	-0.38714,	-0.36573,	-0.25959,	-0.05828,	0.15034,	0.28871,	0.45108,	0.59546,	0.72076,	0.87460,	1.07910,	1.13137,	1.10399,	0.00000,	0.00000,	0.00000,	0.00000,	0.00000,	0.00000,	0.00000,	0.73459,	0.49960,	0.21014,	0.11701,	-0.00049,	-0.27919,	-0.44958,	-0.35642,	-0.31231,	-0.29825,	-0.25585,	-0.09320,	0.14195,	0.24220,	0.34064,	0.44048,	0.51793,	0.49460,	0.42677,	0.36743,	0.26090,	0.11392,	0.01865,	-0.11543,	-0.24956,	-0.20502,	-0.14745,	-0.30858,	-0.46783,	-0.61915,	-0.79501,	-0.85969,	-0.98173,	-1.22884,	-1.50545,	-1.56231,	-1.54959,	-1.64121,	-1.70703,	-1.72015,	-1.80214,	-1.85655,	-1.79848,	-1.54892,	-1.22938,	-1.08637,	-0.97596,	-0.86781,	-0.77285,	-0.68829,	-0.57795,	-0.46868,	-0.46173,	-0.56763,	-0.70691,	-0.86843,	-1.02646,	-1.02714,	-0.90757,	-0.89946,	-0.87863,	-0.87233,	-0.88754,	-0.73552,	-0.58361,	-0.52232,	-0.46979,	-0.20248,	0.05797,	0.06161,	0.00487,	0.11717,	0.13550,	0.04474,	-0.01272,	0.00762,	0.11445,	0.10210,	0.06842,	0.14326,	0.20812,	0.22505,	0.22991,	0.32511,	0.40920,	0.45570,	0.47116,	0.38412,	0.21440,	0.21826,	0.35570,	0.46189,	0.51125,	0.54234,	0.43386,	0.46545,	0.49766,	0.46600,	0.27787,	0.10329,	-0.00260,	-0.20995,	-0.38264,	-0.31040,	-0.23653,	-0.28157,	-0.28090,	-0.27361,	-0.16959,	-0.14359,	0.00000,	0.00000,	0.00000,	0.00000,	0.00000,	0.00000,	0.00000,	0.00000,	0.10144,	0.18333,	0.10146,	0.05128,	0.09361,	0.07041,	-0.09847,	-0.26840,	-0.54118,	-0.65755,	-0.82855,	-1.06707,	-1.41493,	-1.63228,	-1.68071,	-1.82307,	-2.00193,	-2.03539,	-2.00310,	-2.08213,	-2.05985,	-1.96156,	-1.75668,	-1.69228,	-1.68858,	-1.55331,	-1.44852,	-1.45466,	-1.58991,	-1.69763,	-1.79609,	-1.79992,	-1.71515,	-1.51364,	-1.45864,	-1.43287,	-1.36901,	-1.38673,	-1.56992,	-1.68224,	-1.95493,	-2.18555,	-2.36722,	-2.46180,	-2.56623,	-2.48855,	-2.29640,	-2.22994,	-2.25098,	-2.15978,	-1.95174,	-1.81259,	-1.59378,	-1.42693,	-1.22394,	-1.19065,	-1.26767,	-1.15881,	-1.02264,	-0.90078,	-0.84471,	-0.76568,	-0.74797,	-0.77720,	-0.74520,	-0.60131,	-0.59910,	-0.66163,	-0.57707,	-0.45574,	-0.47931,	-0.44930,	-0.52668,	-0.48294,	-0.37634,	-0.29247,	-0.41901,	-0.60174,	-0.71696,	-0.91933,	-1.26747,	-1.48418,	-1.60139,	-1.86246,	-2.06781,	-2.17704,	-2.13033,	-2.11789,	-2.22558,	-2.22325,	-2.15893,	-2.05981,	-2.00089,	-1.90046,	-1.88626,	-1.96201,	-2.02624,	-1.96872,	-1.93480,	-1.86729,	-1.70665,	-1.65538,	-1.76067,	-1.75936,	-1.78448,	-1.72383,	-1.65406,	-1.57203,	-1.62599,	-1.69139,	-1.56392,	-1.41457,	-1.38304,	-1.30681,	-1.12414,	-1.10997,	-1.10508,	-1.00114,	-0.80783,	-0.58403,	-0.47143,	-0.31541,	-0.20922,	-0.19076,	-0.22994,	-0.23425,	-0.30045,	-0.47402,	-0.59140,	-0.58772,	-0.69628,	-0.91667,	-1.02997,	-1.11341,	-1.31958,	-1.43827,	-1.59381,	-1.72989,	-1.76070,	-1.73277,	-1.71137,	-1.64599,	-1.44500,	-1.30749,	-1.28399,	-1.12697
-1.09320,	-1.12525,	-1.24893,	-1.27532,	-1.16948,	-1.14905,	-1.23401,	-1.18436,	-1.14785,	-1.13827,	-1.10439,	-1.07550,	-1.12108,	-1.12383,	-0.95624,	-0.87176,	-1.01853,	-1.14820,	-0.99294,	-0.81007,	-0.76948,	-0.82662,	-0.72909,	-0.55854,	-0.50985,	-0.39764,	-0.21436,	0.02648,	0.17334,	0.34786,	0.49914,	0.62278,	0.77358,	0.96030,	0.96276,	0.90418,	0.89751,	0.00000,	0.00000,	0.00000,	0.00000,	0.00000,	0.00000,	0.00000,	0.18609,	0.02099,	-0.01191,	-0.03116,	-0.19462,	-0.45792,	-0.51321,	-0.44209,	-0.37484,	-0.42234,	-0.37263,	-0.13138,	0.00852,	0.07164,	0.13562,	0.28881,	0.34290,	0.32198,	0.28322,	0.22823,	0.16376,	0.09755,	-0.04809,	-0.21937,	-0.18885,	-0.13310,	-0.26498,	-0.38534,	-0.50458,	-0.69478,	-0.78161,	-0.90193,	-1.13927,	-1.32600,	-1.28238,	-1.23915,	-1.36935,	-1.56107,	-1.60942,	-1.56307,	-1.51538,	-1.49613,	-1.34990,	-1.07635,	-0.97426,	-0.93909,	-0.87116,	-0.72879,	-0.54913,	-0.35806,	-0.24458,	-0.28847,	-0.45305,	-0.62614,	-0.80562,	-0.94971,	-0.86487,	-0.73555,	-0.79103,	-0.84303,	-0.85900,	-0.87159,	-0.78609,	-0.59689,	-0.44814,	-0.37342,	-0.15899,	0.08288,	0.15266,	0.04324,	0.03032,	0.12596,	0.18679,	0.08810,	0.02053,	0.13874,	0.12842,	0.02678,	0.02121,	0.13097,	0.27499,	0.36095,	0.50170,	0.55109,	0.58647,	0.60244,	0.52022,	0.37953,	0.40944,	0.53207,	0.62142,	0.63394,	0.62238,	0.52706,	0.54679,	0.56008,	0.46840,	0.27049,	0.17398,	0.12553,	-0.00911,	-0.20192,	-0.28391,	-0.25264,	-0.26582,	-0.36043,	-0.45306,	-0.33502,	-0.22329,	0.00000,	0.00000,	0.00000,	0.00000,	0.00000,	0.00000,	0.00000,	0.22003,	0.30073,	0.26029,	0.07719,	0.02705,	0.10115,	0.08666,	-0.00202,	-0.08998,	-0.38498,	-0.64207,	-0.82493,	-0.99888,	-1.30637,	-1.51815,	-1.55206,	-1.63259,	-1.87615,	-2.06991,	-2.05952,	-2.05691,	-2.10500,	-2.13168,	-1.89550,	-1.73319,	-1.67959,	-1.57285,	-1.48803,	-1.41450,	-1.49248,	-1.52063,	-1.59445,	-1.60219,	-1.53146,	-1.37097,	-1.36809,	-1.35648,	-1.26103,	-1.24062,	-1.46020,	-1.66760,	-1.97090,	-2.19652,	-2.30378,	-2.31407,	-2.34936,	-2.26918,	-2.13454,	-2.09086,	-2.17718,	-2.22780,	-2.05039,	-1.75195,	-1.47295,	-1.38718,	-1.20454,	-1.15290,	-1.19386,	-1.09022,	-0.92417,	-0.68283,	-0.63295,	-0.61106,	-0.67886,	-0.72002,	-0.66254,	-0.53554,	-0.46130,	-0.41427,	-0.34965,	-0.31903,	-0.38513,	-0.37051,	-0.48698,	-0.55868,	-0.44661,	-0.32255,	-0.44909,	-0.60636,	-0.72247,	-0.90018,	-1.28407,	-1.63326,	-1.74526,	-1.83337,	-1.97936,	-2.20327,	-2.26224,	-2.26684,	-2.37176,	-2.37991,	-2.29384,	-2.10992,	-1.98417,	-1.81920,	-1.81807,	-1.92090,	-1.95023,	-1.88497,	-1.91907,	-1.91264,	-1.75506,	-1.63338,	-1.67687,	-1.63309,	-1.63351,	-1.67566,	-1.68055,	-1.65119,	-1.73326,	-1.77388,	-1.65047,	-1.41933,	-1.34550,	-1.40910,	-1.33657,	-1.25479,	-1.16987,	-1.09521,	-0.87859,	-0.55292,	-0.41907,	-0.34117,	-0.30676,	-0.24563,	-0.25304,	-0.25993,	-0.28245,	-0.44462,	-0.66116,	-0.79681,	-0.95839,	-1.13618,	-1.23491,	-1.32695,	-1.48273,	-1.57204,	-1.72870,	-1.89093,	-1.91968,	-1.87494,	-1.86339,	-1.77970,	-1.53434,	-1.32269,	-1.26387,	-1.24951
-1.30540,	-1.29546,	-1.41207,	-1.44045,	-1.36232,	-1.27693,	-1.30200,	-1.26935,	-1.18617,	-1.16670,	-1.11978,	-1.08178,	-0.99554,	-0.95131,	-0.96419,	-1.00070,	-1.09305,	-1.15738,	-1.07085,	-0.99465,	-0.96677,	-1.04652,	-1.01370,	-0.81745,	-0.74896,	-0.57665,	-0.44237,	-0.27090,	-0.06139,	0.14470,	0.25586,	0.40977,	0.51550,	0.67614,	0.65453,	0.57332,	0.52534,	0.00000,	0.00000,	0.00000,	0.00000,	0.00000,	0.00000,	0.00000,	0.03674,	-0.01702,	-0.16166,	-0.23735,	-0.28836,	-0.48297,	-0.63532,	-0.66698,	-0.54865,	-0.57586,	-0.66415,	-0.48404,	-0.34441,	-0.25663,	-0.22395,	-0.09068,	0.08326,	0.12590,	0.03496,	0.03230,	0.01893,	0.01717,	-0.03364,	-0.16051,	-0.16939,	-0.10709,	-0.14289,	-0.24750,	-0.31920,	-0.47847,	-0.63319,	-0.84969,	-1.02379,	-1.09035,	-1.16194,	-1.24151,	-1.34146,	-1.45606,	-1.48214,	-1.47231,	-1.37987,	-1.30411,	-1.25256,	-1.03499,	-0.90949,	-0.82565,	-0.75238,	-0.67655,	-0.45410,	-0.25309,	-0.25921,	-0.33035,	-0.47085,	-0.55524,	-0.62275,	-0.75362,	-0.70925,	-0.62485,	-0.64637,	-0.75489,	-0.77634,	-0.74461,	-0.69937,	-0.54877,	-0.34311,	-0.18604,	-0.14858,	-0.04993,	0.09534,	0.07619,	0.02607,	0.03109,	0.11854,	0.08072,	-0.02899,	0.10032,	0.16922,	0.08861,	0.05763,	0.08591,	0.28749,	0.45300,	0.55247,	0.60408,	0.65971,	0.66848,	0.69378,	0.60480,	0.60260,	0.66435,	0.75869,	0.68675,	0.64739,	0.59408,	0.57763,	0.52212,	0.41619,	0.35163,	0.22742,	0.09107,	0.00075,	-0.10504,	-0.21487,	-0.31318,	-0.36966,	-0.42360,	-0.55890,	-0.49155,	0.00000,	0.00000,	0.00000,	0.00000,	0.00000,	0.00000,	0.00000,	0.28455,	0.38505,	0.37957,	0.34164,	0.11289,	0.01092,	0.05478,	0.12979,	0.08166,	0.01757,	-0.24612,	-0.56349,	-0.77112,	-0.90283,	-1.07301,	-1.37061,	-1.57166,	-1.67866,	-1.87787,	-2.06737,	-2.13536,	-2.17322,	-2.21875,	-2.32027,	-2.15284,	-1.91048,	-1.78711,	-1.58663,	-1.51083,	-1.38920,	-1.33793,	-1.33070,	-1.39551,	-1.36816,	-1.36252,	-1.21817,	-1.28455,	-1.33853,	-1.32305,	-1.26386,	-1.51600,	-1.79025,	-2.03095,	-2.19071,	-2.26304,	-2.25012,	-2.13414,	-2.08999,	-2.12885,	-2.13446,	-2.13678,	-2.13286,	-2.03948,	-1.80455,	-1.50202,	-1.43514,	-1.31095,	-1.14938,	-1.04184,	-0.83185,	-0.70788,	-0.50126,	-0.43499,	-0.49665,	-0.68133,	-0.72025,	-0.69164,	-0.50320,	-0.36355,	-0.28258,	-0.28874,	-0.24657,	-0.29497,	-0.29958,	-0.39233,	-0.50586,	-0.44637,	-0.38424,	-0.42879,	-0.56838,	-0.80579,	-1.03526,	-1.36606,	-1.67165,	-1.83743,	-1.94943,	-2.00688,	-2.17888,	-2.30100,	-2.28761,	-2.35144,	-2.26500,	-2.19293,	-2.05402,	-1.88418,	-1.78166,	-1.90461,	-2.00599,	-2.06746,	-1.97921,	-2.02738,	-2.05989,	-1.94106,	-1.71886,	-1.68229,	-1.64722,	-1.59686,	-1.64443,	-1.68668,	-1.70516,	-1.67235,	-1.64356,	-1.68248,	-1.56930,	-1.47953,	-1.52346,	-1.54523,	-1.49455,	-1.26630,	-1.11049,	-0.94167,	-0.60288,	-0.45634,	-0.34484,	-0.36957,	-0.38244,	-0.33350,	-0.34311,	-0.44014,	-0.60415,	-0.90223,	-1.07646,	-1.19764,	-1.33139,	-1.47514,	-1.56223,	-1.66182,	-1.78430,	-1.90726,	-2.00650,	-1.99610,	-1.97007,	-1.89285,	-1.74582,	-1.64243,	-1.51982,	-1.38893,	-1.30058
-1.32885,	-1.38133,	-1.50102,	-1.50314,	-1.44177,	-1.47324,	-1.48350,	-1.39232,	-1.27109,	-1.14282,	-1.06086,	-1.11803,	-1.07776,	-0.98920,	-0.99250,	-0.97894,	-1.02111,	-1.10586,	-1.10003,	-1.17785,	-1.21201,	-1.23575,	-1.21659,	-1.19584,	-1.22015,	-1.04706,	-0.91216,	-0.74290,	-0.52019,	-0.21090,	0.00309,	0.26085,	0.38199,	0.42414,	0.36029,	0.33248,	0.33785,	0.35407,	0.00000,	0.00000,	0.00000,	0.00000,	0.00000,	0.00000,	0.00000,	0.00000,	-0.25521,	-0.29206,	-0.33656,	-0.56355,	-0.73895,	-0.83757,	-0.74529,	-0.70302,	-0.78199,	-0.77947,	-0.78414,	-0.71031,	-0.66619,	-0.49755,	-0.27497,	-0.16207,	-0.18116,	-0.08944,	-0.02841,	-0.03506,	-0.02731,	-0.00918,	0.05304,	0.03440,	-0.06979,	-0.18814,	-0.28663,	-0.37845,	-0.48341,	-0.77210,	-1.00579,	-1.04996,	-1.11580,	-1.17725,	-1.21704,	-1.32692,	-1.37442,	-1.43560,	-1.40871,	-1.26711,	-1.14769,	-1.02377,	-0.98124,	-0.82534,	-0.69119,	-0.61153,	-0.42438,	-0.27195,	-0.27299,	-0.27653,	-0.31039,	-0.34822,	-0.39334,	-0.48016,	-0.43504,	-0.45029,	-0.55349,	-0.63952,	-0.66927,	-0.58186,	-0.46542,	-0.40057,	-0.35345,	-0.23511,	-0.17528,	-0.04544,	0.18365,	0.18212,	0.10603,	0.03336,	0.02497,	0.05158,	0.06649,	0.19362,	0.19698,	0.14343,	0.12505,	0.12626,	0.30044,	0.46327,	0.62539,	0.77452,	0.91904,	0.90487,	0.89794,	0.83813,	0.86148,	0.85406,	0.80461,	0.71196,	0.64069,	0.59228,	0.61118,	0.48724,	0.27826,	0.22208,	0.15678,	0.04459,	0.01716,	-0.08013,	-0.22127,	-0.38036,	-0.52904,	-0.51217,	-0.52348,	0.00000,	0.00000,	0.00000,	0.00000,	0.00000,	0.00000,	0.00000,	0.00000,	0.46294,	0.60825,	0.54783,	0.45505,	0.26328,	0.21887,	0.24884,	0.22086,	0.16673,	0.03846,	-0.22728,	-0.43838,	-0.63970,	-0.85130,	-1.03020,	-1.29548,	-1.53023,	-1.61959,	-1.82112,	-2.03482,	-2.12661,	-2.27261,	-2.34135,	-2.38309,	-2.27624,	-2.18672,	-2.05281,	-1.75526,	-1.56974,	-1.37014,	-1.25910,	-1.16822,	-1.18079,	-1.06454,	-1.07531,	-1.03002,	-1.12198,	-1.16828,	-1.23532,	-1.37814,	-1.67039,	-1.97095,	-2.19948,	-2.24057,	-2.29624,	-2.37359,	-2.26288,	-2.15781,	-2.17769,	-2.08547,	-1.99024,	-1.95834,	-1.88807,	-1.80199,	-1.57076,	-1.41215,	-1.26134,	-1.17093,	-0.99934,	-0.72598,	-0.59351,	-0.41648,	-0.38504,	-0.41517,	-0.57230,	-0.52622,	-0.48444,	-0.35018,	-0.21271,	-0.10821,	-0.11915,	-0.18300,	-0.21961,	-0.22011,	-0.32127,	-0.35714,	-0.33410,	-0.42570,	-0.53519,	-0.62880,	-0.81936,	-0.96967,	-1.26855,	-1.59900,	-1.80359,	-2.01167,	-2.06668,	-2.06813,	-2.08860,	-2.18066,	-2.27997,	-2.18132,	-2.12755,	-2.01414,	-1.88791,	-1.80415,	-1.92626,	-1.95266,	-2.02121,	-2.03859,	-2.10534,	-2.08921,	-1.96421,	-1.85400,	-1.85280,	-1.83411,	-1.79373,	-1.74092,	-1.73157,	-1.78619,	-1.72839,	-1.62487,	-1.65125,	-1.55486,	-1.51061,	-1.60714,	-1.67324,	-1.68319,	-1.44528,	-1.18532,	-0.97392,	-0.78101,	-0.71598,	-0.56759,	-0.55773,	-0.54619,	-0.49232,	-0.48475,	-0.59831,	-0.74541,	-1.02449,	-1.23857,	-1.32663,	-1.36772,	-1.47438,	-1.65742,	-1.83935,	-1.99012,	-2.12408,	-2.11299,	-1.99479,	-2.01189,	-2.00214,	-1.84828,	-1.74072,	-1.59170,	-1.41638,	-1.29972
-1.44567,	-1.54112,	-1.54688,	-1.51020,	-1.49715,	-1.58282,	-1.51384,	-1.41842,	-1.30583,	-1.19414,	-1.13127,	-1.12972,	-1.19428,	-1.16652,	-1.08000,	-1.03425,	-0.97699,	-1.06565,	-1.19593,	-1.31843,	-1.35132,	-1.47522,	-1.48876,	-1.51159,	-1.58859,	-1.37923,	-1.20058,	-1.01181,	-0.87148,	-0.63461,	-0.31572,	-0.02731,	0.13483,	0.12217,	0.14987,	0.19344,	0.19105,	0.19624,	0.00000,	0.00000,	0.00000,	0.00000,	0.00000,	0.00000,	0.00000,	0.00000,	0.00000,	0.00000,	0.00000,	-0.76455,	-0.92454,	-0.94550,	-0.85090,	-0.91490,	-0.99642,	-1.01771,	-1.10897,	-1.04472,	-0.98257,	-0.78354,	-0.58898,	-0.49938,	-0.37242,	-0.19138,	-0.06851,	-0.08465,	-0.01848,	0.08872,	0.13307,	0.10399,	0.05954,	-0.06368,	-0.26059,	-0.39112,	-0.51699,	-0.65560,	-0.84365,	-0.98166,	-1.05626,	-1.17074,	-1.18246,	-1.25548,	-1.36064,	-1.39582,	-1.31739,	-1.18033,	-1.02472,	-0.87867,	-0.89540,	-0.75518,	-0.59149,	-0.45843,	-0.31330,	-0.27136,	-0.20067,	-0.14078,	-0.12077,	-0.15862,	-0.14923,	-0.15350,	-0.23845,	-0.36141,	-0.39863,	-0.34562,	-0.35821,	-0.28524,	-0.26986,	-0.24887,	-0.31443,	-0.33091,	-0.18638,	-0.04157,	0.13758,	0.16119,	0.05808,	0.00238,	0.03385,	0.05031,	0.09367,	0.29957,	0.31591,	0.30895,	0.36504,	0.44078,	0.58027,	0.60948,	0.73792,	0.89287,	1.04130,	1.04550,	1.03990,	1.00915,	0.93145,	0.87365,	0.85962,	0.90271,	0.80545,	0.70345,	0.55431,	0.41362,	0.25842,	0.09232,	0.05847,	-0.02973,	-0.07353,	-0.07605,	-0.23850,	-0.41031,	-0.55091,	-0.59687,	-0.63881,	0.00000,	0.00000,	0.00000,	0.00000,	0.00000,	0.00000,	0.00000,	0.53714,	0.65571,	0.72007,	0.60058,	0.50840,	0.47284,	0.45630,	0.47563,	0.42700,	0.38609,	0.12048,	-0.15195,	-0.37114,	-0.54041,	-0.72664,	-1.04579,	-1.30125,	-1.53450,	-1.70538,	-1.86074,	-2.11678,	-2.23038,	-2.33678,	-2.43277,	-2.50931,	-2.33078,	-2.25825,	-2.14825,	-1.84464,	-1.58813,	-1.29266,	-1.18294,	-1.08789,	-1.06686,	-0.98035,	-0.97291,	-0.94901,	-0.92339,	-1.00865,	-1.18748,	-1.47634,	-1.71583,	-2.03494,	-2.28359,	-2.38640,	-2.43247,	-2.38986,	-2.31384,	-2.18491,	-2.15456,	-2.12522,	-1.98136,	-1.94253,	-1.85238,	-1.72249,	-1.52108,	-1.39732,	-1.15163,	-1.01660,	-0.84989,	-0.54583,	-0.38455,	-0.24675,	-0.34135,	-0.39591,	-0.43020,	-0.34210,	-0.27726,	-0.22612,	-0.09564,	-0.06483,	-0.07346,	-0.10111,	-0.01691,	-0.06003,	-0.20642,	-0.29440,	-0.33359,	-0.37506,	-0.58103,	-0.72240,	-0.84681,	-1.02203,	-1.25747,	-1.54597,	-1.72858,	-1.87324,	-1.92811,	-2.01058,	-1.95789,	-1.98794,	-2.08144,	-2.01292,	-2.01830,	-1.91638,	-1.88961,	-1.87290,	-1.89057,	-1.89691,	-1.97876,	-2.13444,	-2.15249,	-2.10425,	-2.03439,	-1.98192,	-1.89408,	-1.84429,	-1.80179,	-1.76848,	-1.79640,	-1.76829,	-1.76556,	-1.70277,	-1.64011,	-1.61332,	-1.59248,	-1.68544,	-1.77969,	-1.74664,	-1.51806,	-1.33375,	-1.10306,	-0.95470,	-0.95885,	-0.76728,	-0.65192,	-0.50997,	-0.49632,	-0.61198,	-0.77973,	-0.99840,	-1.21198,	-1.39552,	-1.39900,	-1.40556,	-1.55159,	-1.75402,	-1.87553,	-2.00231,	-2.17714,	-2.19009,	-2.10649,	-2.02187,	-2.02730,	-1.91957,	-1.71275,	-1.59888,	-1.46645,	-1.38365
-1.59100,	-1.68069,	-1.65444,	-1.58022,	-1.57377,	-1.63438,	-1.61662,	-1.53578,	-1.39988,	-1.26792,	-1.19066,	-1.22078,	-1.30481,	-1.27057,	-1.19580,	-1.18012,	-1.06701,	-1.00726,	-1.13822,	-1.41426,	-1.50922,	-1.63845,	-1.69086,	-1.67226,	-1.75047,	-1.61295,	-1.44716,	-1.31330,	-1.24619,	-1.03818,	-0.68691,	-0.46160,	-0.29240,	-0.24723,	-0.15715,	-0.05881,	-0.02931,	-0.03040,	0.00000,	0.00000,	0.00000,	0.00000,	0.00000,	0.00000,	0.00000,	0.00000,	0.00000,	0.00000,	0.00000,	0.00000,	0.00000,	-0.95818,	-1.01686,	-1.13712,	-1.19344,	-1.14231,	-1.20798,	-1.20402,	-1.14954,	-1.00360,	-0.85645,	-0.68223,	-0.41951,	-0.24453,	-0.14979,	-0.13458,	-0.10936,	-0.03282,	0.04871,	0.09706,	0.08293,	-0.06442,	-0.26395,	-0.42198,	-0.54906,	-0.61630,	-0.70976,	-0.77227,	-0.84860,	-1.02508,	-1.05053,	-1.02842,	-1.07523,	-1.19372,	-1.19924,	-1.03860,	-0.86074,	-0.68299,	-0.70434,	-0.70798,	-0.59471,	-0.43998,	-0.31226,	-0.23151,	-0.05207,	0.00333,	-0.03690,	-0.12126,	-0.14483,	-0.12054,	-0.19815,	-0.28407,	-0.22887,	-0.07857,	0.02355,	0.05586,	-0.01597,	-0.09942,	-0.21722,	-0.16875,	0.02370,	0.10260,	0.12487,	0.17915,	0.21041,	0.13498,	0.08864,	0.15009,	0.26161,	0.50483,	0.60023,	0.59694,	0.68410,	0.81224,	0.88918,	0.86598,	0.92655,	0.95504,	1.00483,	1.06536,	1.06769,	0.98954,	0.88212,	0.81402,	0.83125,	0.92810,	0.93843,	0.84904,	0.64609,	0.48217,	0.34817,	0.20306,	0.15608,	0.01869,	-0.10658,	-0.05360,	-0.11691,	-0.35605,	-0.68667,	-0.83049,	0.00000,	0.00000,	0.00000,	0.00000,	0.00000,	0.00000,	0.00000,	0.00000,	0.59524,	0.74332,	0.69303,	0.58646,	0.53188,	0.55659,	0.60112,	0.61487,	0.57401,	0.47196,	0.26502,	0.08768,	-0.07150,	-0.25785,	-0.54943,	-0.91233,	-1.16301,	-1.44785,	-1.73370,	-1.86024,	-2.00827,	-2.19500,	-2.46306,	-2.57522,	-2.58222,	-2.34903,	-2.18867,	-2.12939,	-1.96126,	-1.69590,	-1.35392,	-1.15656,	-0.96858,	-0.95839,	-0.99987,	-0.99830,	-0.97214,	-0.92660,	-0.99953,	-1.19939,	-1.50214,	-1.75775,	-1.99196,	-2.21829,	-2.34239,	-2.37858,	-2.30795,	-2.18048,	-2.03204,	-2.04285,	-2.17619,	-2.09219,	-1.91945,	-1.77776,	-1.75278,	-1.57191,	-1.36531,	-1.04500,	-0.81515,	-0.73508,	-0.52454,	-0.32555,	-0.21344,	-0.30669,	-0.27078,	-0.22239,	-0.22252,	-0.21346,	-0.21271,	-0.16222,	-0.10887,	0.00394,	0.12016,	0.20827,	0.14191,	0.00046,	-0.08198,	-0.13825,	-0.20221,	-0.39425,	-0.53044,	-0.70721,	-0.98518,	-1.19561,	-1.29711,	-1.40950,	-1.67627,	-1.82554,	-1.97115,	-1.91716,	-1.79895,	-1.83975,	-1.87896,	-1.95574,	-1.92277,	-1.96371,	-1.91652,	-1.84536,	-1.89589,	-1.97499,	-2.13786,	-2.16685,	-2.10746,	-2.04564,	-1.97570,	-1.88294,	-1.78080,	-1.69572,	-1.68300,	-1.73976,	-1.78043,	-1.82645,	-1.73665,	-1.65816,	-1.72938,	-1.74427,	-1.69816,	-1.72704,	-1.85600,	-1.81839,	-1.65820,	-1.39484,	-1.16212,	-1.12474,	-0.95986,	-0.76176,	-0.56541,	-0.59392,	-0.72829,	-0.93231,	-1.22154,	-1.37034,	-1.44603,	-1.45888,	-1.52356,	-1.63899,	-1.74929,	-1.82404,	-1.89835,	-2.00551,	-2.04060,	-2.01758,	-1.95867,	-1.94383,	-1.77363,	-1.55843,	-1.55817,	-1.55328,	-1.49221
-1.52279,	-1.58424,	-1.66692,	-1.63911,	-1.62988,	-1.69221,	-1.75227,	-1.71775,	-1.58139,	-1.47979,	-1.34139,	-1.38982,	-1.43751,	-1.36420,	-1.39956,	-1.33259,	-1.20589,	-1.15257,	-1.22183,	-1.39129,	-1.57970,	-1.71025,	-1.73894,	-1.79322,	-1.92400,	-1.90673,	-1.73217,	-1.68593,	-1.66015,	-1.51969,	-1.13923,	-0.87537,	-0.63273,	-0.48818,	-0.46013,	-0.36574,	-0.26812,	0.00000,	0.00000,	0.00000,	0.00000,	0.00000,	0.00000,	0.00000,	0.00000,	0.00000,	0.00000,	0.00000,	0.00000,	0.00000,	0.00000,	0.00000,	0.00000,	0.00000,	-1.19413,	-1.17635,	-1.26619,	-1.31446,	-1.17889,	-1.06827,	-0.96790,	-0.80762,	-0.52319,	-0.34646,	-0.23133,	-0.10067,	-0.13872,	-0.09114,	0.08480,	0.16513,	0.11306,	-0.09076,	-0.29867,	-0.50969,	-0.65044,	-0.73487,	-0.78820,	-0.70047,	-0.72627,	-0.79235,	-0.73634,	-0.75042,	-0.79611,	-0.84227,	-0.89429,	-0.82664,	-0.63952,	-0.53409,	-0.62732,	-0.72113,	-0.55626,	-0.38868,	-0.33152,	-0.28959,	-0.11332,	-0.00293,	-0.00778,	-0.02124,	-0.13171,	-0.14269,	-0.08712,	-0.06778,	0.00202,	0.11918,	0.20349,	0.14534,	0.05282,	-0.04203,	-0.14743,	0.01748,	0.16724,	0.23655,	0.29164,	0.29647,	0.35913,	0.39539,	0.38277,	0.41550,	0.63209,	0.83894,	0.88379,	0.85440,	0.99492,	1.13205,	1.08232,	1.00954,	0.98228,	1.01336,	1.07949,	1.25908,	1.24523,	1.10548,	1.04809,	0.95213,	0.85241,	0.83332,	0.84595,	0.77312,	0.63001,	0.51013,	0.34068,	0.26366,	0.18145,	0.02326,	-0.03465,	-0.09333,	-0.22564,	-0.42932,	-0.74637,	0.00000,	0.00000,	0.00000,	0.00000,	0.00000,	0.00000,	0.00000,	0.00000,	0.17923,	0.44544,	0.68407,	0.72050,	0.77811,	0.72974,	0.66898,	0.72294,	0.70867,	0.63822,	0.49514,	0.37390,	0.27144,	0.13662,	-0.03781,	-0.44131,	-0.79312,	-1.07850,	-1.42369,	-1.62859,	-1.80041,	-1.97342,	-2.15104,	-2.38560,	-2.58352,	-2.52511,	-2.33174,	-2.25719,	-2.23951,	-2.09033,	-1.71724,	-1.41194,	-1.14810,	-0.95165,	-0.86027,	-0.88007,	-0.81908,	-0.84745,	-0.94729,	-1.01995,	-1.19050,	-1.47963,	-1.79101,	-2.02587,	-2.24126,	-2.37273,	-2.34850,	-2.31443,	-2.16502,	-2.03288,	-2.09928,	-2.14856,	-2.09825,	-1.93150,	-1.74267,	-1.64892,	-1.57486,	-1.30134,	-0.94730,	-0.79335,	-0.79635,	-0.64285,	-0.33250,	-0.22576,	-0.23626,	-0.21762,	-0.12487,	-0.16749,	-0.15307,	-0.13220,	-0.15801,	-0.00764,	0.23140,	0.39153,	0.41525,	0.29931,	0.16198,	0.06048,	0.03939,	-0.07674,	-0.22953,	-0.32184,	-0.56005,	-0.74385,	-0.93198,	-1.06246,	-1.19293,	-1.40668,	-1.67156,	-1.82007,	-1.72944,	-1.64681,	-1.69952,	-1.79021,	-1.80206,	-1.86278,	-1.97155,	-2.03812,	-1.93743,	-1.92774,	-1.87024,	-1.89005,	-1.99922,	-1.97513,	-1.89338,	-1.84590,	-1.82818,	-1.78644,	-1.75533,	-1.82525,	-1.85817,	-1.95009,	-1.98537,	-1.83553,	-1.82266,	-1.85001,	-1.87497,	-1.86192,	-1.87481,	-1.95919,	-2.07197,	-1.95080,	-1.62596,	-1.38671,	-1.32989,	-1.20692,	-0.91289,	-0.76327,	-0.83050,	-0.99292,	-1.14080,	-1.31598,	-1.34230,	-1.28806,	-1.38267,	-1.50570,	-1.53681,	-1.59203,	-1.68318,	-1.76985,	-1.84050,	-1.91690,	-1.90574,	-1.90336,	-1.90972,	-1.71544,	-1.61975,	-1.61255,	-1.60246,	-1.61489
-1.42262,	-1.55643,	-1.66849,	-1.63896,	-1.65920,	-1.73172,	-1.77304,	-1.70808,	-1.56870,	-1.53746,	-1.43337,	-1.42007,	-1.41154,	-1.40914,	-1.54451,	-1.58499,	-1.49731,	-1.41568,	-1.43709,	-1.47557,	-1.64047,	-1.86322,	-1.93576,	-2.00676,	-2.14322,	-2.14760,	-2.04076,	-2.01482,	-1.98610,	-1.86313,	-1.50988,	-1.18299,	-0.91106,	-0.81910,	-0.80473,	-0.64210,	-0.48857,	0.00000,	0.00000,	0.00000,	0.00000,	0.00000,	0.00000,	0.00000,	0.00000,	0.00000,	0.00000,	0.00000,	0.00000,	0.00000,	0.00000,	0.00000,	0.00000,	0.00000,	0.00000,	-1.27590,	-1.33148,	-1.31875,	-1.15892,	-1.04997,	-0.94863,	-0.81514,	-0.60185,	-0.44833,	-0.33656,	-0.22780,	-0.23193,	-0.05940,	0.20037,	0.27421,	0.22105,	0.02580,	-0.16968,	-0.41313,	-0.64428,	-0.75017,	-0.73820,	-0.62554,	-0.61104,	-0.62475,	-0.56069,	-0.53780,	-0.56479,	-0.54316,	-0.53625,	-0.60150,	-0.56523,	-0.51012,	-0.60189,	-0.64493,	-0.44805,	-0.30028,	-0.27640,	-0.30459,	-0.19912,	-0.04775,	0.03238,	0.02104,	-0.11474,	-0.08725,	0.08100,	0.17349,	0.25788,	0.33999,	0.34904,	0.21875,	0.08453,	0.03766,	0.03795,	0.17969,	0.21483,	0.25057,	0.30096,	0.35574,	0.45635,	0.59860,	0.73565,	0.74884,	0.86995,	1.02873,	1.06653,	1.08519,	1.26641,	1.34707,	1.25711,	1.15113,	1.08367,	1.16348,	1.30305,	1.45938,	1.42445,	1.34089,	1.35278,	1.20952,	0.99187,	0.86656,	0.84672,	0.78361,	0.64364,	0.54332,	0.40883,	0.30792,	0.12688,	-0.06870,	-0.19191,	-0.31847,	-0.48386,	-0.63498,	-0.78377,	0.00000,	0.00000,	0.00000,	0.00000,	0.00000,	0.00000,	0.00000,	-0.06518,	0.14088,	0.37724,	0.64552,	0.83252,	0.95276,	0.86312,	0.77212,	0.79993,	0.72614,	0.65305,	0.56712,	0.54448,	0.48556,	0.29883,	0.11113,	-0.25408,	-0.63676,	-1.05176,	-1.43981,	-1.68158,	-1.85227,	-2.00989,	-2.17270,	-2.27593,	-2.46245,	-2.53023,	-2.43445,	-2.40330,	-2.35892,	-2.10938,	-1.68505,	-1.35071,	-1.08231,	-0.90287,	-0.77739,	-0.69473,	-0.65123,	-0.80814,	-0.97414,	-1.01201,	-1.17844,	-1.45220,	-1.76122,	-1.99266,	-2.18697,	-2.34817,	-2.32355,	-2.24712,	-2.13027,	-2.11014,	-2.18584,	-2.23757,	-2.14860,	-1.93647,	-1.73321,	-1.53758,	-1.48674,	-1.33582,	-1.02972,	-0.88198,	-0.87035,	-0.68274,	-0.37612,	-0.18920,	-0.11488,	-0.11284,	-0.06923,	-0.11714,	-0.13734,	-0.15975,	-0.13117,	0.16180,	0.43376,	0.57081,	0.59592,	0.50227,	0.38219,	0.23338,	0.18696,	0.11641,	-0.00225,	-0.15289,	-0.39756,	-0.59004,	-0.74451,	-0.86448,	-1.05300,	-1.19613,	-1.45393,	-1.69191,	-1.63380,	-1.57716,	-1.63435,	-1.67721,	-1.68357,	-1.74716,	-1.88818,	-2.05257,	-1.99960,	-1.88477,	-1.72931,	-1.72268,	-1.83682,	-1.77849,	-1.70477,	-1.70402,	-1.71736,	-1.71957,	-1.75955,	-1.91477,	-1.98630,	-2.03145,	-2.01275,	-1.93266,	-1.98875,	-2.08942,	-2.15855,	-2.11710,	-2.10398,	-2.06475,	-2.13456,	-2.14001,	-1.90332,	-1.64700,	-1.54622,	-1.38892,	-1.12036,	-1.01533,	-1.06253,	-1.18928,	-1.27384,	-1.29681,	-1.26116,	-1.25655,	-1.36579,	-1.42098,	-1.40126,	-1.44567,	-1.50124,	-1.54743,	-1.58513,	-1.69402,	-1.75030,	-1.75613,	-1.75147,	-1.67697,	-1.72436,	-1.77954,	-1.78050,	-1.72284
-1.52397,	-1.61138,	-1.66378,	-1.61801,	-1.70843,	-1.78593,	-1.77441,	-1.69663,	-1.53090,	-1.49822,	-1.52787,	-1.58631,	-1.47689,	-1.43825,	-1.60565,	-1.67306,	-1.60406,	-1.49388,	-1.58551,	-1.70213,	-1.86334,	-1.95197,	-2.06346,	-2.16635,	-2.23680,	-2.29915,	-2.23974,	-2.27416,	-2.20349,	-1.98545,	-1.79139,	-1.51359,	-1.26899,	-1.13829,	-1.05085,	-0.85084,	-0.68821,	-0.63991,	0.00000,	0.00000,	0.00000,	0.00000,	0.00000,	0.00000,	0.00000,	0.00000,	0.00000,	0.00000,	0.00000,	0.00000,	0.00000,	0.00000,	0.00000,	0.00000,	0.00000,	0.00000,	-1.26042,	-1.21346,	-1.11139,	-1.12502,	-1.04528,	-0.80280,	-0.68778,	-0.60023,	-0.52342,	-0.40967,	-0.30988,	-0.03978,	0.20555,	0.23485,	0.17671,	-0.02994,	-0.14665,	-0.27253,	-0.53623,	-0.73030,	-0.65473,	-0.48527,	-0.48204,	-0.45778,	-0.34784,	-0.23762,	-0.25772,	-0.32117,	-0.35375,	-0.37157,	-0.35856,	-0.37314,	-0.35837,	-0.38978,	-0.30118,	-0.28303,	-0.32209,	-0.25999,	-0.21531,	-0.10527,	0.06641,	0.11155,	0.00827,	0.00368,	0.13924,	0.22424,	0.31039,	0.28952,	0.22506,	0.17868,	0.08720,	0.04882,	0.11123,	0.20933,	0.12235,	0.15101,	0.28866,	0.43700,	0.54569,	0.68559,	0.89970,	1.02200,	1.11747,	1.10351,	1.19761,	1.28417,	1.45453,	1.47367,	1.33041,	1.32098,	1.25517,	1.30335,	1.46884,	1.56148,	1.53561,	1.48603,	1.51481,	1.33307,	1.09517,	0.88884,	0.84552,	0.83567,	0.66404,	0.45752,	0.31206,	0.25626,	0.02261,	-0.21598,	-0.36833,	-0.49851,	-0.60983,	-0.75164,	0.00000,	0.00000,	0.00000,	0.00000,	0.00000,	0.00000,	0.00000,	0.00000,	-0.07965,	0.25972,	0.46538,	0.60040,	0.84844,	0.98203,	0.92366,	0.76651,	0.68350,	0.54648,	0.53583,	0.53621,	0.56129,	0.52645,	0.30470,	0.03935,	-0.29478,	-0.62980,	-1.11363,	-1.49994,	-1.67430,	-1.80619,	-1.94721,	-2.20207,	-2.31805,	-2.40833,	-2.37887,	-2.41138,	-2.36533,	-2.25662,	-2.01256,	-1.61285,	-1.38104,	-1.10671,	-0.95187,	-0.91887,	-0.75657,	-0.71680,	-0.84007,	-1.00929,	-1.04754,	-1.28472,	-1.57837,	-1.89629,	-2.13001,	-2.22645,	-2.33780,	-2.40252,	-2.38812,	-2.22523,	-2.17718,	-2.21277,	-2.18773,	-2.06701,	-1.83648,	-1.70812,	-1.56135,	-1.46858,	-1.22683,	-1.03164,	-0.82355,	-0.71624,	-0.62930,	-0.43107,	-0.29900,	-0.11240,	-0.04425,	-0.16854,	-0.25110,	-0.27061,	-0.19977,	-0.06638,	0.23999,	0.36462,	0.41918,	0.45968,	0.40753,	0.35378,	0.24093,	0.14927,	0.07584,	0.04464,	-0.10076,	-0.35736,	-0.49069,	-0.55360,	-0.57604,	-0.82584,	-1.05548,	-1.32367,	-1.45521,	-1.49335,	-1.50238,	-1.54207,	-1.66932,	-1.71598,	-1.82688,	-1.90022,	-1.96734,	-2.01157,	-1.85130,	-1.68798,	-1.65485,	-1.74864,	-1.67957,	-1.66025,	-1.70868,	-1.74617,	-1.81817,	-1.83605,	-1.90099,	-2.01322,	-2.10627,	-2.05485,	-2.02313,	-2.15030,	-2.25339,	-2.28390,	-2.14634,	-2.11325,	-2.03521,	-2.06955,	-2.05055,	-1.96976,	-1.77835,	-1.58354,	-1.48605,	-1.34875,	-1.36103,	-1.31382,	-1.21889,	-1.26732,	-1.27047,	-1.30369,	-1.36144,	-1.43883,	-1.43968,	-1.47279,	-1.54726,	-1.51470,	-1.50286,	-1.46464,	-1.51368,	-1.65939,	-1.74929,	-1.68423,	-1.59466,	-1.71072,	-1.77421,	-1.74362,	-1.57416
-1.75919,	-1.73201,	-1.69694,	-1.62280,	-1.69319,	-1.69167,	-1.66140,	-1.64144,	-1.54587,	-1.63841,	-1.74965,	-1.79761,	-1.64646,	-1.47135,	-1.54740,	-1.60810,	-1.57528,	-1.60383,	-1.78840,	-1.88403,	-2.00436,	-1.99013,	-2.04031,	-2.13853,	-2.21255,	-2.30964,	-2.23887,	-2.17717,	-2.08211,	-2.02633,	-1.95032,	-1.71590,	-1.49677,	-1.25557,	-1.07168,	-0.88064,	-0.69863,	-0.57582,	0.00000,	0.00000,	0.00000,	0.00000,	0.00000,	0.00000,	0.00000,	0.00000,	0.00000,	0.00000,	0.00000,	0.00000,	0.00000,	0.00000,	0.00000,	0.00000,	0.00000,	0.00000,	-1.25461,	-1.23274,	-1.19723,	-1.19188,	-1.08963,	-0.96643,	-0.90454,	-0.79066,	-0.73247,	-0.56974,	-0.39771,	-0.13718,	0.08555,	0.17485,	0.14953,	-0.04464,	-0.12044,	-0.23722,	-0.47593,	-0.61163,	-0.50692,	-0.27102,	-0.20684,	-0.18004,	-0.06241,	0.01006,	-0.06218,	-0.10779,	-0.11090,	-0.06641,	0.04084,	0.04851,	0.07095,	-0.02286,	-0.07658,	-0.09621,	-0.12444,	-0.14183,	-0.14934,	-0.01223,	0.20290,	0.32089,	0.25110,	0.17434,	0.22069,	0.30190,	0.36913,	0.24194,	0.12374,	0.11085,	0.04158,	0.06756,	0.08147,	0.08340,	0.00788,	0.03495,	0.22547,	0.36339,	0.38018,	0.57545,	0.90169,	1.08798,	1.20202,	1.13988,	1.23211,	1.33875,	1.51029,	1.59784,	1.53320,	1.45413,	1.29768,	1.35039,	1.48392,	1.56120,	1.56617,	1.52908,	1.56603,	1.45811,	1.31374,	1.08418,	0.98795,	0.90840,	0.61579,	0.37931,	0.22574,	0.19148,	0.04237,	-0.22886,	-0.42816,	-0.57501,	-0.69710,	-0.73899,	0.00000,	0.00000,	0.00000,	0.00000,	0.00000,	0.00000,	0.00000,	-0.10622,	0.23223,	0.51176,	0.53805,	0.61911,	0.82584,	0.95115,	0.93484,	0.71861,	0.57391,	0.50179,	0.59268,	0.60897,	0.54064,	0.37478,	0.02990,	-0.21769,	-0.47025,	-0.76959,	-1.16109,	-1.52811,	-1.68436,	-1.83364,	-2.09197,	-2.35021,	-2.36483,	-2.37392,	-2.22908,	-2.22519,	-2.18372,	-2.08582,	-1.92402,	-1.60288,	-1.37666,	-1.22135,	-1.27245,	-1.23595,	-1.03312,	-0.93957,	-0.92077,	-1.03376,	-1.07733,	-1.30630,	-1.55714,	-1.88857,	-2.14726,	-2.23405,	-2.41575,	-2.50987,	-2.49958,	-2.29669,	-2.05593,	-2.01109,	-1.95602,	-1.87678,	-1.80825,	-1.71591,	-1.48872,	-1.31473,	-0.99252,	-0.80148,	-0.57214,	-0.47115,	-0.51444,	-0.42449,	-0.25727,	-0.08146,	-0.16187,	-0.31748,	-0.35643,	-0.29063,	-0.08913,	0.07971,	0.23902,	0.20436,	0.23900,	0.28152,	0.24968,	0.18635,	-0.02530,	-0.13153,	-0.15406,	-0.15463,	-0.17476,	-0.35293,	-0.43278,	-0.43735,	-0.49088,	-0.72830,	-0.90707,	-1.17141,	-1.28645,	-1.38265,	-1.46235,	-1.56712,	-1.80230,	-1.88096,	-1.88438,	-1.87690,	-2.00188,	-2.02684,	-1.82279,	-1.67124,	-1.59034,	-1.65627,	-1.60494,	-1.58314,	-1.58166,	-1.63516,	-1.75780,	-1.75355,	-1.82087,	-1.93773,	-2.01218,	-2.01651,	-1.97086,	-2.08087,	-2.17556,	-2.16399,	-2.07354,	-2.03493,	-1.82792,	-1.81216,	-1.81123,	-1.81210,	-1.70096,	-1.55141,	-1.56097,	-1.52836,	-1.44867,	-1.25928,	-1.18703,	-1.22131,	-1.27515,	-1.43171,	-1.51301,	-1.56399,	-1.56840,	-1.64190,	-1.67638,	-1.58336,	-1.54310,	-1.48533,	-1.57728,	-1.74496,	-1.78198,	-1.67638,	-1.46853,	-1.48414,	-1.54473,	-1.53044,	-1.45154
-1.87705,	-1.85378,	-1.74608,	-1.70324,	-1.74496,	-1.71677,	-1.77100,	-1.73231,	-1.68391,	-1.81753,	-1.84611,	-1.80865,	-1.69745,	-1.59027,	-1.59875,	-1.62958,	-1.67428,	-1.67160,	-1.80294,	-1.90823,	-1.96646,	-1.94872,	-1.99462,	-2.07348,	-2.12972,	-2.13010,	-2.13288,	-2.05557,	-1.98636,	-2.00516,	-1.83931,	-1.57791,	-1.45400,	-1.24745,	-0.99166,	-0.83015,	-0.66045,	-0.55080,	-0.67657,	0.00000,	0.00000,	0.00000,	0.00000,	0.00000,	0.00000,	0.00000,	0.00000,	0.00000,	0.00000,	0.00000,	0.00000,	0.00000,	0.00000,	0.00000,	0.00000,	0.00000,	0.00000,	-1.27733,	-1.31791,	-1.30699,	-1.18549,	-1.15053,	-0.99727,	-0.82147,	-0.86501,	-0.77014,	-0.55907,	-0.33858,	-0.12450,	0.06337,	0.04179,	-0.04649,	-0.04130,	-0.18207,	-0.32510,	-0.35725,	-0.27950,	-0.11072,	0.01615,	0.12427,	0.19236,	0.27758,	0.27621,	0.20457,	0.23144,	0.29641,	0.36773,	0.36815,	0.36936,	0.32136,	0.18539,	0.09939,	0.08157,	-0.01308,	0.09324,	0.33929,	0.47334,	0.50346,	0.46702,	0.37008,	0.34339,	0.42919,	0.37347,	0.19449,	0.12207,	0.07971,	0.07355,	0.15874,	0.07254,	-0.08469,	-0.17438,	-0.08429,	0.07385,	0.21610,	0.30717,	0.47929,	0.81714,	1.03440,	1.09445,	1.04920,	1.15916,	1.34329,	1.52218,	1.57299,	1.56817,	1.41495,	1.33021,	1.46541,	1.50864,	1.50571,	1.56129,	1.56923,	1.57858,	1.55113,	1.38232,	1.13926,	1.09731,	0.95696,	0.71315,	0.55615,	0.37538,	0.24152,	0.06747,	-0.15109,	-0.39526,	-0.55687,	-0.57195,	0.00000,	0.00000,	0.00000,	0.00000,	0.00000,	0.00000,	0.00000,	0.00000,	0.13467,	0.48939,	0.63392,	0.67198,	0.84697,	0.96982,	0.99084,	0.96817,	0.75336,	0.54907,	0.53195,	0.56488,	0.49659,	0.43078,	0.16533,	-0.16139,	-0.30267,	-0.49880,	-0.83572,	-1.23426,	-1.53605,	-1.72324,	-1.91670,	-2.09701,	-2.32701,	-2.32856,	-2.28851,	-2.19631,	-2.19661,	-2.17048,	-2.05826,	-1.90508,	-1.75727,	-1.53947,	-1.49430,	-1.53329,	-1.35754,	-1.17773,	-1.15122,	-1.09908,	-1.12578,	-1.18006,	-1.30585,	-1.50911,	-1.86724,	-2.04710,	-2.17011,	-2.35708,	-2.38594,	-2.35831,	-2.22546,	-2.02272,	-1.90430,	-1.84545,	-1.83334,	-1.71968,	-1.61457,	-1.39759,	-1.15414,	-0.87200,	-0.70161,	-0.50102,	-0.42025,	-0.42502,	-0.44978,	-0.24630,	-0.11462,	-0.19491,	-0.20095,	-0.18374,	-0.15872,	0.01422,	0.17648,	0.17246,	0.07322,	0.07558,	0.04022,	0.08622,	0.00326,	-0.24101,	-0.29739,	-0.28101,	-0.33030,	-0.38068,	-0.43360,	-0.44513,	-0.48221,	-0.46478,	-0.65640,	-0.86948,	-1.10951,	-1.31745,	-1.50638,	-1.63103,	-1.74970,	-1.89738,	-2.04640,	-2.00314,	-1.98619,	-2.10553,	-1.97268,	-1.71055,	-1.61081,	-1.52815,	-1.51548,	-1.48609,	-1.43784,	-1.39705,	-1.52006,	-1.58321,	-1.56237,	-1.65223,	-1.69950,	-1.72252,	-1.81259,	-1.87551,	-1.94672,	-2.00205,	-2.04134,	-1.90467,	-1.79997,	-1.62078,	-1.58390,	-1.62846,	-1.70299,	-1.64043,	-1.53138,	-1.49427,	-1.55079,	-1.42573,	-1.18873,	-1.15127,	-1.07446,	-1.11536,	-1.40777,	-1.58297,	-1.61406,	-1.66552,	-1.76391,	-1.76014,	-1.74314,	-1.65716,	-1.54513,	-1.63205,	-1.65789,	-1.56508,	-1.48262,	-1.34282,	-1.31003,	-1.32515,	-1.40021,	-1.37226
-1.92898,	-1.99000,	-1.93784,	-1.82297,	-1.81837,	-1.84432,	-1.92185,	-1.99618,	-1.99100,	-1.98071,	-1.89620,	-1.90359,	-1.82712,	-1.73806,	-1.72895,	-1.69675,	-1.71575,	-1.62697,	-1.68641,	-1.85976,	-1.93600,	-1.84735,	-1.84616,	-1.87304,	-1.90065,	-1.90949,	-1.94471,	-1.97185,	-1.96911,	-1.89598,	-1.67743,	-1.49882,	-1.39807,	-1.22178,	-0.97023,	-0.71132,	-0.51156,	-0.54489,	-0.76810,	-0.94400,	0.00000,	0.00000,	0.00000,	0.00000,	0.00000,	0.00000,	0.00000,	0.00000,	0.00000,	0.00000,	0.00000,	0.00000,	0.00000,	0.00000,	0.00000,	0.00000,	0.00000,	-1.27179,	-1.28782,	-1.29547,	-1.23716,	-1.16480,	-1.00287,	-0.93867,	-1.01817,	-0.95211,	-0.79288,	-0.54855,	-0.25617,	-0.05938,	-0.00540,	-0.01942,	-0.01723,	-0.05947,	-0.09564,	-0.17657,	-0.17938,	-0.01007,	0.15814,	0.33854,	0.45522,	0.59880,	0.65700,	0.52360,	0.48589,	0.57738,	0.65179,	0.64010,	0.62822,	0.56359,	0.43291,	0.29692,	0.21889,	0.22431,	0.45300,	0.66394,	0.72847,	0.67792,	0.57680,	0.53322,	0.57277,	0.55918,	0.38903,	0.15914,	0.05744,	0.09112,	0.14973,	0.11907,	-0.13501,	-0.32527,	-0.41654,	-0.30244,	-0.10796,	0.09046,	0.26650,	0.39125,	0.63740,	0.90756,	1.06490,	1.09489,	1.23436,	1.39716,	1.54702,	1.55483,	1.49690,	1.41685,	1.42045,	1.45857,	0.00000,	0.00000,	0.00000,	1.54173,	1.67159,	1.62649,	1.41321,	1.17666,	1.06498,	0.97624,	0.88467,	0.72294,	0.42708,	0.27032,	0.08947,	-0.08926,	-0.26216,	-0.39355,	-0.36049,	0.00000,	0.00000,	0.00000,	0.00000,	0.00000,	0.00000,	0.00000,	0.33160,	0.47889,	0.69726,	0.79086,	0.90493,	1.03762,	1.04207,	1.00367,	0.89187,	0.69455,	0.63984,	0.59790,	0.48323,	0.32598,	0.13344,	-0.10547,	-0.27971,	-0.39899,	-0.67681,	-0.96931,	-1.31326,	-1.56164,	-1.67414,	-1.81473,	-1.87780,	-2.09382,	-2.24686,	-2.26063,	-2.17396,	-2.19317,	-2.13352,	-2.01479,	-1.91377,	-1.86013,	-1.77743,	-1.73196,	-1.60154,	-1.39950,	-1.32535,	-1.32487,	-1.31864,	-1.30378,	-1.19803,	-1.25247,	-1.46203,	-1.78101,	-2.02291,	-2.14820,	-2.21355,	-2.22752,	-2.32817,	-2.26288,	-2.12685,	-2.02464,	-1.92316,	-1.88043,	-1.67359,	-1.56252,	-1.44689,	-1.17527,	-0.80663,	-0.61118,	-0.41432,	-0.37369,	-0.38285,	-0.39031,	-0.26998,	-0.15661,	-0.10493,	-0.05111,	-0.05562,	-0.03573,	0.02071,	0.08545,	0.11556,	0.00794,	-0.08909,	-0.15376,	-0.17948,	-0.26305,	-0.37290,	-0.39254,	-0.47958,	-0.54077,	-0.54787,	-0.53514,	-0.48726,	-0.51747,	-0.45830,	-0.63894,	-0.94743,	-1.20407,	-1.40136,	-1.63642,	-1.75649,	-1.84924,	-1.93635,	-2.04310,	-2.08126,	-2.09592,	-2.08483,	-1.90177,	-1.72449,	-1.62117,	-1.54249,	-1.50983,	-1.34893,	-1.23259,	-1.24132,	-1.35466,	-1.44758,	-1.46603,	-1.47658,	-1.47891,	-1.60334,	-1.73976,	-1.80618,	-1.87020,	-1.85403,	-1.83195,	-1.61078,	-1.47484,	-1.44055,	-1.49850,	-1.50522,	-1.55814,	-1.50034,	-1.41485,	-1.39837,	-1.42141,	-1.30858,	-1.11848,	-1.02163,	-0.93745,	-1.08427,	-1.41617,	-1.65850,	-1.75522,	-1.75113,	-1.77884,	-1.82133,	-1.82164,	-1.74455,	-1.61621,	-1.51913,	-1.37946,	-1.32854,	-1.32011,	-1.22286,	-1.19455,	-1.15036,	-1.19990,	-1.19410
-1.89108,	-2.02201,	-2.09200,	-2.08320,	-2.04580,	-2.04834,	-1.99792,	-2.12898,	-2.12966,	-2.09089,	-1.95885,	-1.90885,	-1.84905,	-1.77904,	-1.73938,	-1.72096,	-1.70500,	-1.63380,	-1.69502,	-1.79171,	-1.83488,	-1.78564,	-1.74062,	-1.77109,	-1.79779,	-1.86084,	-1.85914,	-1.84372,	-1.94472,	-1.92521,	-1.68227,	-1.53319,	-1.37553,	-1.14062,	-0.88610,	-0.65826,	-0.49591,	-0.62752,	-0.80958,	-1.01165,	-1.06849,	-1.05498,	0.00000,	0.00000,	0.00000,	0.00000,	0.00000,	0.00000,	0.00000,	0.00000,	0.00000,	0.00000,	0.00000,	0.00000,	0.00000,	0.00000,	0.00000,	0.00000,	-1.21823,	-1.05957,	-1.11594,	-1.19463,	-1.14597,	-1.17492,	-1.15052,	-0.97457,	-0.82213,	-0.65590,	-0.38904,	-0.16817,	0.06487,	0.14911,	0.12811,	0.09604,	0.04501,	0.01784,	0.01829,	0.16061,	0.33476,	0.49497,	0.63323,	0.78761,	0.81175,	0.74088,	0.76920,	0.82745,	0.85601,	0.78063,	0.66459,	0.53205,	0.47796,	0.47894,	0.37946,	0.37831,	0.64638,	0.84297,	0.93969,	0.92328,	0.79739,	0.72905,	0.70550,	0.58246,	0.40020,	0.21188,	0.10415,	0.13755,	0.04851,	-0.06575,	-0.32423,	-0.46556,	-0.52452,	-0.45586,	-0.29717,	-0.05602,	0.11747,	0.28946,	0.59368,	0.87949,	1.11794,	1.21969,	1.24292,	1.27790,	1.35790,	1.47633,	1.47782,	0.00000,	0.00000,	0.00000,	0.00000,	0.00000,	0.00000,	0.00000,	0.00000,	1.54402,	1.39522,	1.27044,	1.09100,	1.01085,	0.86685,	0.73776,	0.48005,	0.30927,	0.13860,	-0.01817,	-0.15331,	-0.23025,	0.00000,	0.00000,	0.00000,	0.00000,	0.00000,	0.00000,	0.00000,	0.00000,	0.46881,	0.75288,	0.95183,	0.94693,	1.01994,	1.10683,	1.07157,	1.04529,	0.89490,	0.69187,	0.63684,	0.51351,	0.27910,	0.10907,	-0.14563,	-0.28207,	-0.46209,	-0.55625,	-0.77382,	-0.98756,	-1.23520,	-1.42944,	-1.52040,	-1.55857,	-1.59190,	-1.79055,	-2.00425,	-2.15424,	-2.22642,	-2.25129,	-2.19747,	-2.06199,	-2.01083,	-1.90803,	-1.81702,	-1.80671,	-1.65640,	-1.48601,	-1.47488,	-1.43648,	-1.39886,	-1.36372,	-1.28474,	-1.34473,	-1.53967,	-1.71834,	-1.99797,	-2.12088,	-2.24336,	-2.25155,	-2.30165,	-2.26917,	-2.22189,	-2.18504,	-2.15441,	-2.04672,	-1.83867,	-1.73109,	-1.54802,	-1.23427,	-0.86923,	-0.62058,	-0.48698,	-0.48567,	-0.52653,	-0.39239,	-0.20328,	-0.15751,	-0.12759,	-0.03140,	0.00171,	0.04525,	0.01083,	-0.05100,	-0.08455,	-0.18579,	-0.32524,	-0.31549,	-0.39008,	-0.43499,	-0.54075,	-0.55544,	-0.57314,	-0.57573,	-0.50706,	-0.46798,	-0.53304,	-0.59746,	-0.65176,	-0.84875,	-1.03101,	-1.21446,	-1.46547,	-1.72112,	-1.88864,	-1.97081,	-2.06517,	-2.07482,	-2.05321,	-2.13471,	-2.13207,	-1.94640,	-1.83215,	-1.69204,	-1.56291,	-1.51037,	-1.35529,	-1.25193,	-1.28430,	-1.24731,	-1.28593,	-1.30977,	-1.39150,	-1.45622,	-1.55454,	-1.64259,	-1.67467,	-1.72622,	-1.72453,	-1.62530,	-1.39177,	-1.29019,	-1.24255,	-1.30672,	-1.35891,	-1.38275,	-1.38200,	-1.36994,	-1.43088,	-1.32608,	-1.05592,	-0.97275,	-1.01569,	-1.00720,	-1.17114,	-1.40777,	-1.61103,	-1.76920,	-1.83100,	-1.86195,	-1.92144,	-1.80327,	-1.64596,	-1.45548,	-1.24189,	-1.08654,	-1.03479,	-1.05578,	-1.03969,	-0.99327,	-0.91439,	-0.90522,	-0.94959
-1.94826,	-2.10806,	-2.25732,	-2.41588,	-2.37037,	-2.24622,	-2.13456,	-2.18922,	-2.13583,	-2.09214,	-1.99815,	-1.96349,	-1.93952,	-1.86563,	-1.79994,	-1.76206,	-1.74772,	-1.72780,	-1.78426,	-1.81412,	-1.82483,	-1.88242,	-1.87451,	-1.77974,	-1.75023,	-1.74594,	-1.72957,	-1.82378,	-1.96822,	-1.94862,	-1.69514,	-1.46405,	-1.28879,	-1.06752,	-0.85284,	-0.76422,	-0.66839,	-0.71317,	-0.86358,	-1.04527,	-1.07139,	-1.08134,	-1.11538,	-1.11346,	0.00000,	0.00000,	0.00000,	0.00000,	0.00000,	0.00000,	0.00000,	0.00000,	0.00000,	0.00000,	0.00000,	0.00000,	0.00000,	0.00000,	-1.11797,	-1.03886,	-1.19488,	-1.34180,	-1.36616,	-1.32519,	-1.16352,	-0.89039,	-0.69252,	-0.61530,	-0.41650,	-0.09358,	0.19762,	0.27588,	0.28468,	0.23923,	0.17032,	0.19358,	0.21373,	0.32256,	0.47459,	0.61560,	0.74846,	0.86310,	0.88074,	0.88028,	0.97253,	1.00460,	0.95804,	0.91837,	0.82998,	0.70004,	0.67187,	0.60851,	0.44563,	0.42224,	0.66860,	0.92635,	1.12428,	1.18706,	1.10016,	0.94953,	0.79941,	0.68630,	0.51080,	0.29750,	0.21063,	0.16766,	-0.04094,	-0.18372,	-0.34875,	-0.40618,	-0.42327,	-0.38106,	-0.27051,	-0.07199,	0.08199,	0.25139,	0.54587,	0.78199,	0.96459,	1.14316,	1.20378,	1.18764,	1.22244,	0.00000,	0.00000,	0.00000,	0.00000,	0.00000,	0.00000,	0.00000,	0.00000,	0.00000,	0.00000,	0.00000,	0.00000,	1.19244,	1.06513,	0.95624,	0.74733,	0.62794,	0.43880,	0.26607,	0.12987,	0.00680,	-0.07651,	-0.10234,	0.00000,	0.00000,	0.00000,	0.00000,	0.00000,	0.00000,	0.00000,	0.36697,	0.57796,	0.82406,	0.96942,	1.00538,	1.06798,	1.15243,	1.19411,	1.18075,	1.03847,	0.78102,	0.55359,	0.36197,	0.12286,	-0.08909,	-0.23612,	-0.28921,	-0.48109,	-0.56347,	-0.68922,	-0.83341,	-0.98607,	-1.16512,	-1.26247,	-1.28625,	-1.32577,	-1.52137,	-1.79273,	-2.07039,	-2.36353,	-2.38991,	-2.17598,	-2.00747,	-1.92702,	-1.86440,	-1.85665,	-1.82837,	-1.72577,	-1.62964,	-1.57639,	-1.53233,	-1.44034,	-1.40596,	-1.46850,	-1.53863,	-1.64143,	-1.79461,	-2.01334,	-2.14315,	-2.32690,	-2.36096,	-2.33730,	-2.27803,	-2.22758,	-2.22674,	-2.22024,	-2.10516,	-1.92366,	-1.81206,	-1.62481,	-1.36730,	-1.14096,	-0.88915,	-0.59494,	-0.52545,	-0.51110,	-0.36748,	-0.23202,	-0.15450,	-0.11282,	-0.00189,	0.11416,	0.12601,	0.04844,	-0.08986,	-0.25342,	-0.36327,	-0.43426,	-0.43488,	-0.47214,	-0.47252,	-0.59081,	-0.64665,	-0.61228,	-0.57486,	-0.45240,	-0.42856,	-0.57302,	-0.71389,	-0.88001,	-1.05064,	-1.11974,	-1.24488,	-1.57581,	-1.85000,	-1.89049,	-1.94078,	-2.05988,	-2.14580,	-2.24321,	-2.33727,	-2.31656,	-2.14486,	-1.98021,	-1.83585,	-1.67347,	-1.60751,	-1.56383,	-1.50935,	-1.44386,	-1.33869,	-1.26578,	-1.19001,	-1.28757,	-1.39599,	-1.43857,	-1.46669,	-1.44731,	-1.48449,	-1.51553,	-1.45626,	-1.28788,	-1.20319,	-1.09972,	-1.12608,	-1.27703,	-1.34528,	-1.22860,	-1.16691,	-1.21044,	-1.09848,	-0.93788,	-0.95198,	-1.06494,	-1.09741,	-1.13300,	-1.26707,	-1.42792,	-1.60873,	-1.80595,	-1.90167,	-1.88867,	-1.75069,	-1.55541,	-1.26822,	-1.00007,	-0.85540,	-0.78453,	-0.79071,	-0.78888,	-0.68681,	-0.55080,	-0.51399,	-0.60498
-2.23055,	-2.35018,	-2.54643,	-2.67055,	-2.57588,	-2.40359,	-2.37512,	-2.41401,	-2.28441,	-2.13136,	-2.16481,	-2.21991,	-2.24386,	-2.13029,	-2.07273,	-1.99787,	-1.99033,	-1.94413,	-1.88588,	-1.91503,	-1.93006,	-1.93355,	-1.91557,	-1.83657,	-1.86974,	-1.74622,	-1.72699,	-1.78963,	-1.81546,	-1.74297,	-1.54233,	-1.37137,	-1.23463,	-1.05652,	-0.95011,	-0.88930,	-0.75780,	-0.71731,	-0.92985,	-1.15900,	-1.11522,	-0.99731,	-1.08637,	-1.13085,	-1.09115,	-0.95440,	-0.92485,	0.00000,	0.00000,	0.00000,	0.00000,	0.00000,	0.00000,	0.00000,	0.00000,	0.00000,	0.00000,	0.00000,	0.00000,	-1.23138,	-1.29261,	-1.39085,	-1.45142,	-1.41281,	-1.19334,	-0.84283,	-0.63991,	-0.54002,	-0.26919,	0.11584,	0.29955,	0.24565,	0.29671,	0.35060,	0.26146,	0.24005,	0.25740,	0.34626,	0.48332,	0.60928,	0.74681,	0.84460,	0.97477,	1.00702,	1.06577,	1.18583,	1.21488,	1.16709,	1.00118,	0.90020,	0.86062,	0.74284,	0.67347,	0.64411,	0.79632,	0.98729,	1.20205,	1.36055,	1.29213,	1.12331,	1.03079,	0.95768,	0.70126,	0.34297,	0.23764,	0.21433,	-0.01153,	-0.20646,	-0.29204,	-0.31210,	-0.29976,	-0.29655,	-0.21267,	-0.09911,	0.10363,	0.20154,	0.32475,	0.54245,	0.75742,	0.94874,	0.00000,	0.00000,	0.00000,	0.00000,	0.00000,	0.00000,	0.00000,	0.00000,	0.00000,	0.00000,	0.00000,	0.00000,	0.00000,	0.00000,	0.00000,	0.00000,	0.00000,	0.79821,	0.61879,	0.41934,	0.26621,	0.08331,	0.00000,	0.00000,	0.00000,	0.00000,	0.00000,	0.00000,	0.00000,	0.00000,	0.00000,	0.00000,	0.00000,	0.34260,	0.56279,	0.72208,	1.01389,	1.17226,	1.21385,	1.21076,	1.22297,	1.24435,	1.10766,	0.78599,	0.56457,	0.37184,	0.13481,	-0.17313,	-0.25530,	-0.23839,	-0.37040,	-0.53494,	-0.60668,	-0.73400,	-0.80611,	-1.04628,	-1.16405,	-1.24395,	-1.22841,	-1.37822,	-1.74570,	-2.06349,	-2.33998,	-2.36501,	-2.19340,	-2.08189,	-1.94707,	-1.96908,	-1.85976,	-1.74388,	-1.70491,	-1.73935,	-1.74755,	-1.69195,	-1.56541,	-1.56629,	-1.57776,	-1.60307,	-1.66244,	-1.91756,	-2.13012,	-2.22975,	-2.36100,	-2.52785,	-2.50450,	-2.42662,	-2.28133,	-2.29963,	-2.24891,	-2.15900,	-1.93534,	-1.76687,	-1.71240,	-1.57255,	-1.34752,	-1.08381,	-0.76025,	-0.67379,	-0.55480,	-0.48058,	-0.23917,	-0.01825,	0.05522,	0.09447,	0.12556,	0.11792,	0.06240,	-0.13398,	-0.27336,	-0.36879,	-0.41880,	-0.53430,	-0.58584,	-0.53167,	-0.54906,	-0.73776,	-0.75144,	-0.74612,	-0.59920,	-0.63054,	-0.77302,	-0.97822,	-1.14187,	-1.21235,	-1.30946,	-1.44740,	-1.68956,	-1.90754,	-1.94354,	-2.07001,	-2.19096,	-2.41251,	-2.48983,	-2.47226,	-2.42150,	-2.33029,	-2.24484,	-2.11043,	-1.90041,	-1.86385,	-1.79526,	-1.68778,	-1.54805,	-1.51477,	-1.43531,	-1.22119,	-1.15214,	-1.30838,	-1.34794,	-1.35693,	-1.27712,	-1.31171,	-1.37233,	-1.40536,	-1.28537,	-1.13606,	-1.05388,	-1.10602,	-1.21624,	-1.25351,	-1.09594,	-1.05343,	-1.01764,	-0.97488,	-0.87631,	-0.81957,	-0.90897,	-1.00280,	-1.07863,	-1.20126,	-1.30598,	-1.50456,	-1.69626,	-1.73395,	-1.68045,	-1.68878,	-1.61196,	-1.27144,	-0.88911,	-0.76211,	-0.70050,	-0.67073,	-0.60957,	-0.45867,	-0.30186,	-0.26789,	-0.37029
-2.46511,	-2.64803,	-2.81476,	-2.80891,	-2.68530,	-2.60989,	-2.61134,	-2.59677,	-2.45898,	-2.37417,	-2.46896,	-2.55436,	-2.57049,	-2.47758,	-2.38998,	-2.25234,	-2.22105,	-2.17624,	-2.07817,	-1.95318,	-1.86897,	-1.88228,	-1.94076,	-1.94867,	-1.97503,	-1.85391,	-1.78671,	-1.80496,	-1.81434,	-1.72193,	-1.52016,	-1.25760,	-1.08340,	-1.05339,	-1.03248,	-0.90981,	-0.75299,	-0.77719,	-0.98002,	-1.11044,	-1.02721,	-0.97581,	-1.08418,	-1.10034,	-1.12348,	-1.11652,	-1.11067,	-1.00641,	0.00000,	0.00000,	0.00000,	0.00000,	0.00000,	0.00000,	0.00000,	0.00000,	0.00000,	0.00000,	0.00000,	-1.49954,	-1.55190,	-1.57381,	-1.55882,	-1.38939,	-1.07136,	-0.77668,	-0.59908,	-0.39786,	-0.04181,	0.28352,	0.33711,	0.24294,	0.30089,	0.33307,	0.26320,	0.27958,	0.29076,	0.30572,	0.40820,	0.60876,	0.82176,	0.91479,	1.00249,	1.10384,	1.28022,	1.48151,	1.54922,	1.44806,	1.22554,	1.04522,	0.94946,	0.87024,	0.82030,	0.78445,	0.91029,	1.13122,	1.40279,	1.51573,	1.44392,	1.38669,	1.39369,	1.25595,	0.90234,	0.53618,	0.34823,	0.19657,	-0.06031,	-0.18279,	-0.19035,	-0.21415,	-0.25034,	-0.24884,	-0.15299,	-0.06673,	0.09835,	0.14689,	0.22555,	0.38019,	0.00000,	0.00000,	0.00000,	0.00000,	0.00000,	0.00000,	0.00000,	0.00000,	0.00000,	0.00000,	0.00000,	0.00000,	0.00000,	0.00000,	0.00000,	0.00000,	0.00000,	0.00000,	0.00000,	0.00000,	0.00000,	0.00000,	0.00000,	0.00000,	0.00000,	0.00000,	0.00000,	0.00000,	0.00000,	0.00000,	0.00000,	0.00000,	0.00000,	0.00000,	0.36095,	0.34931,	0.47841,	0.65576,	0.96451,	1.16132,	1.25937,	1.28534,	1.36862,	1.33186,	1.09352,	0.79313,	0.61645,	0.38759,	0.09814,	-0.16474,	-0.20696,	-0.23531,	-0.43994,	-0.58713,	-0.58810,	-0.67213,	-0.76084,	-1.00773,	-1.13851,	-1.24288,	-1.27838,	-1.43257,	-1.67220,	-1.93343,	-2.18706,	-2.23636,	-2.15630,	-2.09287,	-2.06836,	-2.09573,	-1.96434,	-1.83244,	-1.81573,	-1.88336,	-1.79262,	-1.70980,	-1.66110,	-1.65927,	-1.58427,	-1.60581,	-1.72805,	-1.95490,	-2.12979,	-2.30929,	-2.59377,	-2.78792,	-2.71254,	-2.56231,	-2.41413,	-2.40381,	-2.29222,	-2.19093,	-1.96959,	-1.78862,	-1.67801,	-1.58112,	-1.40210,	-1.15371,	-0.87323,	-0.74761,	-0.65221,	-0.54445,	-0.27711,	-0.04805,	0.07830,	0.10900,	0.15266,	0.11760,	-0.02939,	-0.21654,	-0.25895,	-0.34520,	-0.49317,	-0.63015,	-0.62130,	-0.54023,	-0.59136,	-0.80144,	-0.83982,	-0.86953,	-0.84873,	-0.94588,	-1.02180,	-1.19599,	-1.35505,	-1.43186,	-1.45521,	-1.54086,	-1.74469,	-1.93371,	-2.00842,	-2.16092,	-2.43147,	-2.71358,	-2.75613,	-2.68738,	-2.58602,	-2.52799,	-2.40832,	-2.26364,	-2.12994,	-2.07597,	-1.89355,	-1.77450,	-1.74103,	-1.72240,	-1.54539,	-1.23579,	-1.17323,	-1.32063,	-1.32518,	-1.31814,	-1.25104,	-1.25748,	-1.26206,	-1.29675,	-1.21498,	-1.10993,	-1.00252,	-1.00920,	-1.08171,	-1.08195,	-0.95163,	-0.90423,	-0.89734,	-0.91070,	-0.89500,	-0.89047,	-0.95192,	-1.04390,	-1.06548,	-1.14215,	-1.31718,	-1.51342,	-1.56009,	-1.47817,	-1.46492,	-1.58643,	-1.56464,	-1.26021,	-0.98134,	-0.87283,	-0.71251,	-0.58738,	-0.49574,	-0.34671,	-0.14706,	-0.06296,	-0.14101
-2.63393,	-2.74768,	-2.77561,	-2.85899,	-2.82066,	-2.80047,	-2.79124,	-2.71352,	-2.69793,	-2.67943,	-2.64298,	-2.75279,	-2.73049,	-2.59563,	-2.43180,	-2.35635,	-2.33055,	-2.22558,	-2.15311,	-2.02634,	-1.81876,	-1.83264,	-1.97566,	-2.02534,	-1.91922,	-1.81607,	-1.76888,	-1.78530,	-1.80954,	-1.68344,	-1.51288,	-1.30454,	-1.05292,	-1.02048,	-0.94757,	-0.88938,	-0.83621,	-0.92669,	-1.05745,	-0.97841,	-0.95849,	-1.06126,	-1.05920,	-1.07901,	-1.17245,	-1.21286,	-1.17458,	-1.07883,	-0.94574,	0.00000,	0.00000,	0.00000,	0.00000,	0.00000,	0.00000,	0.00000,	0.00000,	0.00000,	0.00000,	0.00000,	-1.57780,	-1.47936,	-1.42386,	-1.34325,	-1.01446,	-0.70953,	-0.47134,	-0.28909,	-0.01045,	0.29965,	0.32715,	0.34392,	0.36055,	0.32502,	0.42533,	0.43952,	0.35486,	0.33041,	0.44732,	0.70282,	0.96846,	1.17099,	1.21654,	1.25870,	1.51399,	1.73957,	1.71515,	1.54184,	1.37164,	1.18989,	1.08340,	1.08545,	1.05285,	1.07868,	1.16957,	1.26986,	1.50090,	1.57958,	1.63050,	1.67484,	1.59313,	1.40017,	1.02324,	0.77980,	0.51391,	0.20725,	0.08568,	0.05184,	-0.02447,	-0.04824,	-0.09872,	-0.14732,	-0.13884,	0.01247,	0.17584,	0.13584,	0.17156,	0.00000,	0.00000,	0.00000,	0.00000,	0.00000,	0.00000,	0.00000,	0.00000,	0.00000,	0.00000,	0.00000,	0.00000,	0.00000,	0.00000,	0.00000,	0.00000,	0.00000,	0.00000,	0.00000,	0.00000,	0.00000,	0.00000,	0.00000,	0.00000,	0.00000,	0.00000,	0.00000,	0.00000,	0.00000,	0.00000,	0.00000,	0.00000,	0.00000,	0.00000,	0.00000,	0.34452,	0.45569,	0.54436,	0.77948,	1.01086,	1.19568,	1.34815,	1.32671,	1.33839,	1.23835,	1.01686,	0.80768,	0.51835,	0.33152,	0.07889,	-0.06193,	-0.11317,	-0.32300,	-0.51228,	-0.58599,	-0.66847,	-0.68490,	-0.72593,	-0.87710,	-1.06581,	-1.13745,	-1.19420,	-1.44142,	-1.63123,	-1.73427,	-1.97440,	-2.10789,	-2.09140,	-1.98070,	-2.07185,	-2.10574,	-2.01397,	-1.86726,	-1.80580,	-1.90850,	-1.82099,	-1.65085,	-1.57562,	-1.54311,	-1.62796,	-1.69243,	-1.84431,	-1.96366,	-2.06488,	-2.41774,	-2.78142,	-2.86453,	-2.85153,	-2.69416,	-2.57718,	-2.50898,	-2.44714,	-2.29044,	-1.97795,	-1.82702,	-1.74899,	-1.59901,	-1.46515,	-1.25219,	-1.01640,	-0.79141,	-0.67719,	-0.48468,	-0.27729,	-0.12663,	0.05353,	0.04000,	-0.00210,	0.01055,	-0.09173,	-0.17462,	-0.32974,	-0.44775,	-0.62802,	-0.73387,	-0.62841,	-0.61261,	-0.63655,	-0.64366,	-0.75195,	-0.83852,	-0.93454,	-1.06928,	-1.15197,	-1.24996,	-1.32938,	-1.52823,	-1.67038,	-1.68494,	-1.88783,	-2.09924,	-2.18542,	-2.22840,	-2.52288,	-2.74914,	-2.74693,	-2.63987,	-2.48437,	-2.53250,	-2.55352,	-2.41102,	-2.26556,	-2.08176,	-1.92527,	-1.86520,	-1.87954,	-1.79825,	-1.48118,	-1.27721,	-1.32333,	-1.33015,	-1.37796,	-1.38738,	-1.27079,	-1.17536,	-1.14464,	-1.13249,	-0.97112,	-0.94784,	-1.02469,	-1.02184,	-1.03232,	-1.00396,	-0.93070,	-0.81823,	-0.77966,	-0.78573,	-0.80602,	-0.85518,	-0.85814,	-1.00302,	-1.17340,	-1.23275,	-1.39313,	-1.49148,	-1.49407,	-1.38943,	-1.31264,	-1.39021,	-1.29985,	-1.13710,	-1.05401,	-0.83967,	-0.60129,	-0.42694,	-0.28854,	-0.16497,	-0.01214,	0.08842,	0.12249
-2.64715,	-2.77533,	-2.79513,	-2.92879,	-2.98177,	-2.88041,	-2.85853,	-2.92978,	-2.95620,	-2.81097,	-2.70558,	-2.74993,	-2.68858,	-2.52645,	-2.36622,	-2.36103,	-2.35641,	-2.35582,	-2.33502,	-2.12348,	-1.85067,	-1.78228,	-1.85236,	-1.96552,	-1.87769,	-1.74996,	-1.76518,	-1.80160,	-1.82651,	-1.77863,	-1.60513,	-1.34449,	-1.09061,	-1.12182,	-1.08680,	-1.04352,	-1.05415,	-1.09659,	-1.14240,	-1.10451,	-1.11516,	-1.14271,	-1.11130,	-1.12653,	-1.18640,	-1.18048,	-1.11813,	-1.04930,	-0.94414,	0.00000,	0.00000,	0.00000,	0.00000,	0.00000,	0.00000,	0.00000,	0.00000,	0.00000,	0.00000,	0.00000,	-1.37108,	-1.34578,	-1.33309,	-1.26874,	-0.97863,	-0.71304,	-0.49821,	-0.32556,	-0.08021,	0.28419,	0.41245,	0.39219,	0.36707,	0.44233,	0.61117,	0.58784,	0.48124,	0.43291,	0.55126,	0.82199,	1.13794,	1.36064,	1.40667,	1.54395,	1.86021,	2.03280,	1.93569,	1.66033,	1.41790,	1.32107,	1.31886,	1.35732,	1.32630,	1.25769,	1.24912,	1.34793,	1.54862,	1.55676,	1.61363,	1.71693,	1.62594,	1.44834,	1.18177,	0.91659,	0.63150,	0.46217,	0.46502,	0.43969,	0.34799,	0.29765,	0.24016,	0.10799,	0.01601,	0.08158,	0.14756,	0.16119,	0.26166,	0.00000,	0.00000,	0.00000,	0.00000,	0.00000,	0.00000,	0.00000,	0.00000,	0.00000,	0.00000,	0.00000,	0.00000,	0.00000,	0.00000,	0.00000,	0.00000,	0.00000,	0.00000,	0.00000,	0.00000,	0.00000,	0.00000,	0.00000,	0.00000,	0.00000,	0.00000,	0.00000,	0.00000,	0.00000,	0.00000,	0.00000,	0.00000,	0.00000,	0.00000,	0.23293,	0.25881,	0.42255,	0.60723,	0.85868,	1.05154,	1.14937,	1.20615,	1.20480,	1.20312,	1.01747,	0.74916,	0.58796,	0.38017,	0.28792,	0.21375,	0.07542,	-0.11706,	-0.32511,	-0.40203,	-0.51964,	-0.64438,	-0.66618,	-0.65386,	-0.72517,	-0.88501,	-0.96763,	-1.14932,	-1.38295,	-1.43737,	-1.45084,	-1.62768,	-1.83821,	-2.00581,	-1.92024,	-1.97464,	-2.05379,	-1.99644,	-1.88622,	-1.88014,	-1.91123,	-1.76019,	-1.59690,	-1.59497,	-1.61364,	-1.74538,	-1.88028,	-1.95638,	-2.07324,	-2.27998,	-2.59090,	-2.79590,	-2.85728,	-2.86063,	-2.79014,	-2.72286,	-2.63553,	-2.56931,	-2.36607,	-2.10950,	-1.94939,	-1.79938,	-1.65028,	-1.49022,	-1.27574,	-1.17633,	-0.96527,	-0.72985,	-0.50651,	-0.34919,	-0.28844,	-0.22342,	-0.20366,	-0.12870,	-0.05667,	-0.16341,	-0.22505,	-0.38347,	-0.51742,	-0.57754,	-0.68291,	-0.71867,	-0.69899,	-0.54185,	-0.44200,	-0.52324,	-0.65313,	-0.80614,	-0.98408,	-1.07952,	-1.16604,	-1.37150,	-1.67918,	-1.79275,	-1.77090,	-1.92791,	-2.11999,	-2.30395,	-2.34437,	-2.48054,	-2.60937,	-2.57562,	-2.48121,	-2.46891,	-2.58867,	-2.60435,	-2.51358,	-2.44433,	-2.25853,	-2.07381,	-1.99058,	-1.86221,	-1.69673,	-1.49558,	-1.41596,	-1.41976,	-1.39161,	-1.43304,	-1.40935,	-1.23167,	-1.07622,	-1.02813,	-0.99600,	-0.91172,	-0.95251,	-1.03186,	-1.03413,	-0.98834,	-0.90425,	-0.94437,	-0.89981,	-0.76079,	-0.68991,	-0.65895,	-0.70145,	-0.80865,	-1.01552,	-1.19264,	-1.25915,	-1.44923,	-1.55883,	-1.53463,	-1.40603,	-1.19419,	-1.12583,	-1.10435,	-1.02814,	-0.89427,	-0.64244,	-0.38299,	-0.17747,	-0.04822,	0.02620,	0.13709,	0.26319,	0.26994
-2.64598,	-2.74434,	-2.74976,	-2.84169,	-3.01346,	-2.94135,	-2.95191,	-3.06432,	-2.96447,	-2.78221,	-2.80324,	-2.79137,	-2.72553,	-2.57106,	-2.42927,	-2.50646,	-2.46986,	-2.42689,	-2.41876,	-2.18398,	-1.94456,	-1.88950,	-1.82267,	-1.84018,	-1.74861,	-1.70947,	-1.79293,	-1.80836,	-1.86899,	-1.79156,	-1.51987,	-1.25856,	-1.11837,	-1.18945,	-1.16802,	-1.07243,	-1.17527,	-1.26505,	-1.31942,	-1.33108,	-1.21247,	-1.16572,	-1.28924,	-1.30902,	-1.32128,	-1.28887,	-1.19656,	-1.17797,	-1.03954,	-0.87565,	0.00000,	0.00000,	0.00000,	0.00000,	0.00000,	0.00000,	0.00000,	0.00000,	0.00000,	0.00000,	0.00000,	0.00000,	-1.20309,	-1.15738,	-0.98083,	-0.72353,	-0.47004,	-0.22891,	-0.04145,	0.25442,	0.39636,	0.33058,	0.42606,	0.59948,	0.60821,	0.54013,	0.47505,	0.41138,	0.56927,	0.81978,	1.19293,	1.54199,	1.67029,	1.87691,	2.16684,	2.22036,	2.11598,	1.89583,	1.66863,	1.56673,	1.55227,	1.62228,	1.53233,	1.37192,	1.39933,	1.50969,	1.61294,	1.59928,	1.70811,	1.87832,	1.78011,	1.54881,	1.32230,	1.02039,	0.89884,	0.90338,	0.79285,	0.71180,	0.66602,	0.56658,	0.51979,	0.29822,	0.13591,	0.20427,	0.24329,	0.26391,	0.00000,	0.00000,	0.00000,	0.00000,	0.00000,	0.00000,	0.00000,	0.00000,	0.00000,	0.00000,	0.00000,	1.09277,	1.08841,	1.05343,	0.97013,	0.00000,	0.00000,	0.00000,	0.00000,	0.00000,	0.00000,	0.00000,	0.00000,	0.00000,	0.00000,	0.00000,	0.00000,	0.00000,	0.00000,	0.00000,	0.00000,	0.00000,	0.00000,	0.00000,	0.12388,	0.29209,	0.32021,	0.43867,	0.55595,	0.82047,	0.99943,	1.02648,	1.13825,	1.17999,	1.10672,	0.86763,	0.64923,	0.54262,	0.43045,	0.29583,	0.25549,	0.06501,	-0.07819,	-0.14459,	-0.28299,	-0.53083,	-0.63429,	-0.71459,	-0.66752,	-0.72211,	-0.87279,	-0.88667,	-1.03865,	-1.23627,	-1.24874,	-1.29103,	-1.47349,	-1.64217,	-1.82097,	-1.77820,	-1.92415,	-2.03565,	-2.01106,	-1.98814,	-1.91848,	-1.86250,	-1.75067,	-1.66151,	-1.65268,	-1.68045,	-1.78126,	-2.05290,	-2.16666,	-2.35250,	-2.54543,	-2.67155,	-2.84425,	-3.01619,	-2.97922,	-2.98114,	-2.91666,	-2.81204,	-2.75116,	-2.45352,	-2.13718,	-1.96494,	-1.81797,	-1.76328,	-1.65672,	-1.37730,	-1.24017,	-1.03446,	-0.86282,	-0.66106,	-0.50920,	-0.52874,	-0.43590,	-0.31470,	-0.19020,	-0.13396,	-0.18158,	-0.19511,	-0.25708,	-0.46196,	-0.51970,	-0.67548,	-0.76347,	-0.62104,	-0.44166,	-0.46838,	-0.51284,	-0.68312,	-0.85688,	-1.04632,	-1.19413,	-1.24698,	-1.43556,	-1.77018,	-1.86017,	-1.86875,	-2.05666,	-2.16771,	-2.29864,	-2.32799,	-2.47850,	-2.58685,	-2.51819,	-2.49405,	-2.50359,	-2.56473,	-2.58474,	-2.59456,	-2.53653,	-2.33941,	-2.07859,	-2.03068,	-1.87909,	-1.71287,	-1.56957,	-1.41179,	-1.39402,	-1.51592,	-1.53172,	-1.47277,	-1.27126,	-1.07055,	-1.06580,	-1.00458,	-0.86486,	-0.89843,	-0.94529,	-0.98708,	-1.00544,	-0.86026,	-0.84426,	-0.80263,	-0.71577,	-0.65590,	-0.55934,	-0.63814,	-0.76988,	-0.90085,	-1.05893,	-1.20265,	-1.38266,	-1.47134,	-1.39221,	-1.32531,	-1.15120,	-1.05621,	-1.07369,	-0.87985,	-0.66682,	-0.57312,	-0.33967,	-0.11623,	-0.02614,	0.05469,	0.12339,	0.30778,	0.42284
-2.55813,	-2.62067,	-2.61471,	-2.77393,	-2.98730,	-2.93452,	-2.92514,	-2.93883,	-2.85271,	-2.79352,	-2.84428,	-2.78488,	-2.69040,	-2.58502,	-2.50143,	-2.58001,	-2.56818,	-2.52533,	-2.44998,	-2.26072,	-2.05229,	-1.90988,	-1.76844,	-1.71787,	-1.61156,	-1.56872,	-1.64941,	-1.63108,	-1.64999,	-1.60948,	-1.42043,	-1.19804,	-1.08238,	-1.15464,	-1.16181,	-1.14363,	-1.30625,	-1.40154,	-1.45468,	-1.41546,	-1.28006,	-1.29294,	-1.42849,	-1.43411,	-1.44620,	-1.46399,	-1.39061,	-1.31084,	-1.12708,	-0.92853,	0.00000,	0.00000,	0.00000,	0.00000,	0.00000,	0.00000,	0.00000,	0.00000,	0.00000,	0.00000,	0.00000,	0.00000,	0.00000,	-1.08485,	-0.95431,	-0.68550,	-0.38465,	-0.15935,	-0.04851,	0.18924,	0.32412,	0.37097,	0.54837,	0.66550,	0.60024,	0.50749,	0.46061,	0.42815,	0.64134,	0.97612,	1.37394,	1.72006,	1.91170,	2.11198,	2.34789,	2.42220,	2.36361,	2.21090,	2.03580,	1.93042,	1.89507,	1.94627,	1.84332,	1.64061,	1.59299,	1.64963,	1.72507,	1.75259,	1.90994,	2.05736,	1.91904,	1.71385,	1.52508,	1.30671,	1.26261,	1.20749,	1.03644,	0.95757,	0.93657,	0.84379,	0.76848,	0.56524,	0.35340,	0.29669,	0.27197,	0.00000,	0.00000,	0.00000,	0.00000,	0.00000,	0.00000,	0.00000,	0.00000,	0.00000,	0.00000,	1.20299,	1.25281,	1.18205,	1.14758,	1.09502,	1.06301,	1.07988,	1.00759,	0.00000,	0.00000,	0.00000,	0.00000,	0.00000,	0.00000,	0.00000,	0.00000,	0.00000,	0.00000,	0.00000,	0.00000,	0.00000,	0.00000,	0.00000,	-0.03668,	0.00392,	0.15844,	0.33676,	0.38500,	0.48861,	0.61415,	0.84709,	1.00946,	1.05330,	1.15185,	1.17193,	1.09382,	0.88752,	0.73476,	0.64040,	0.45745,	0.28027,	0.21285,	0.04812,	0.03528,	0.00302,	-0.17167,	-0.40570,	-0.55428,	-0.70030,	-0.73081,	-0.77000,	-0.81789,	-0.81710,	-0.94802,	-1.12992,	-1.21584,	-1.21719,	-1.31717,	-1.49520,	-1.67695,	-1.64672,	-1.74022,	-1.88068,	-1.94170,	-1.99648,	-1.95991,	-1.88064,	-1.76750,	-1.69675,	-1.70221,	-1.76518,	-1.93237,	-2.19560,	-2.29689,	-2.48122,	-2.60455,	-2.72205,	-2.93217,	-3.09115,	-3.06513,	-3.10050,	-3.05989,	-2.89593,	-2.76003,	-2.52076,	-2.25092,	-2.05675,	-1.97855,	-1.93466,	-1.77603,	-1.50646,	-1.34756,	-1.11378,	-0.89183,	-0.70192,	-0.56732,	-0.57337,	-0.47476,	-0.34503,	-0.22690,	-0.18308,	-0.18531,	-0.16140,	-0.21714,	-0.38908,	-0.43004,	-0.58246,	-0.65000,	-0.57012,	-0.52829,	-0.59466,	-0.61358,	-0.77480,	-0.98716,	-1.19552,	-1.30660,	-1.37110,	-1.58048,	-1.90233,	-2.05340,	-2.04484,	-2.10114,	-2.17936,	-2.31868,	-2.36922,	-2.44145,	-2.47309,	-2.39021,	-2.37976,	-2.44472,	-2.54409,	-2.56743,	-2.54873,	-2.43265,	-2.23306,	-2.04670,	-2.02386,	-1.86094,	-1.69233,	-1.49883,	-1.35648,	-1.40007,	-1.50605,	-1.51277,	-1.49536,	-1.35293,	-1.14201,	-1.06458,	-1.00286,	-0.88732,	-0.89033,	-0.96307,	-0.98172,	-0.90564,	-0.73212,	-0.69044,	-0.62636,	-0.49421,	-0.41795,	-0.36054,	-0.47458,	-0.62794,	-0.76104,	-0.88294,	-0.99751,	-1.13409,	-1.21936,	-1.25386,	-1.29826,	-1.18848,	-1.09185,	-0.98646,	-0.71784,	-0.54984,	-0.50384,	-0.28683,	-0.06200,	-0.01049,	0.03695,	0.15432,	0.38479,	0.54585
-2.61910,	-2.65490,	-2.62142,	-2.73718,	-2.92047,	-2.86641,	-2.80971,	-2.73632,	-2.80090,	-2.85302,	-2.86116,	-2.79871,	-2.65509,	-2.54437,	-2.42615,	-2.47458,	-2.61086,	-2.63260,	-2.36590,	-2.16759,	-1.97254,	-1.82922,	-1.76304,	-1.66130,	-1.56242,	-1.54482,	-1.56506,	-1.49224,	-1.39960,	-1.38469,	-1.37980,	-1.20913,	-1.06979,	-1.10270,	-1.12248,	-1.13245,	-1.32544,	-1.42567,	-1.47545,	-1.40694,	-1.40051,	-1.48739,	-1.49837,	-1.49318,	-1.53464,	-1.60969,	-1.51982,	-1.37633,	-1.30606,	-1.17978,	0.00000,	0.00000,	0.00000,	0.00000,	0.00000,	0.00000,	0.00000,	0.00000,	0.00000,	0.00000,	0.00000,	0.00000,	0.00000,	0.00000,	-1.04898,	-0.77419,	-0.41557,	-0.15128,	-0.08103,	0.08031,	0.17960,	0.32607,	0.47660,	0.52817,	0.58434,	0.51684,	0.49477,	0.55977,	0.89518,	1.34083,	1.61613,	1.79318,	2.07417,	2.31872,	2.53178,	2.66680,	2.61468,	2.56140,	2.45674,	2.26708,	2.16002,	2.16048,	2.10297,	1.96049,	1.79614,	1.76392,	1.82827,	1.88264,	2.07713,	2.22929,	2.09580,	1.91599,	1.78403,	1.66123,	1.54307,	1.31738,	1.22445,	1.15170,	1.10537,	1.06070,	1.01996,	0.94008,	0.62260,	0.31934,	0.26543,	0.00000,	0.00000,	0.00000,	0.00000,	0.00000,	0.00000,	0.00000,	1.06322,	1.03828,	1.06661,	1.18684,	1.22814,	1.14419,	1.09771,	0.99812,	0.97218,	1.04806,	1.02064,	0.99788,	0.93770,	0.00000,	0.00000,	0.00000,	0.00000,	0.00000,	0.00000,	0.00000,	0.00000,	-0.08271,	-0.05162,	-0.10589,	-0.05609,	0.11141,	0.14101,	0.20168,	0.25712,	0.40764,	0.52248,	0.59641,	0.70140,	0.86961,	0.99691,	1.10730,	1.15510,	1.10507,	1.03956,	0.86506,	0.78328,	0.71598,	0.48593,	0.22768,	0.13194,	-0.01802,	-0.00747,	-0.10625,	-0.16727,	-0.25724,	-0.42624,	-0.59846,	-0.70091,	-0.72708,	-0.77036,	-0.87443,	-0.96675,	-1.04500,	-1.18961,	-1.11906,	-1.20789,	-1.40900,	-1.55547,	-1.58220,	-1.64258,	-1.81784,	-1.99789,	-2.10942,	-2.16802,	-2.13355,	-1.99128,	-1.90712,	-1.88453,	-1.93866,	-2.08742,	-2.29252,	-2.34348,	-2.51450,	-2.64306,	-2.91765,	-3.11660,	-3.18763,	-3.19416,	-3.18002,	-3.05965,	-2.75455,	-2.58873,	-2.56807,	-2.40206,	-2.08307,	-1.99579,	-1.87985,	-1.73840,	-1.56281,	-1.38793,	-1.17743,	-0.95663,	-0.78923,	-0.70693,	-0.64843,	-0.53204,	-0.46253,	-0.39328,	-0.39801,	-0.37531,	-0.34016,	-0.35228,	-0.46214,	-0.44981,	-0.52298,	-0.56492,	-0.68475,	-0.76463,	-0.81902,	-0.84882,	-0.95597,	-1.14672,	-1.32601,	-1.43420,	-1.63465,	-1.89015,	-2.04563,	-2.18552,	-2.11183,	-2.06051,	-2.18629,	-2.34701,	-2.48606,	-2.57401,	-2.54282,	-2.46787,	-2.39327,	-2.44115,	-2.61128,	-2.62929,	-2.53941,	-2.35738,	-2.16235,	-2.01524,	-2.03888,	-1.90318,	-1.73722,	-1.50603,	-1.45221,	-1.47101,	-1.40125,	-1.40401,	-1.43934,	-1.33389,	-1.06197,	-0.87017,	-0.89665,	-0.88796,	-0.76229,	-0.80782,	-0.76281,	-0.60806,	-0.50288,	-0.45129,	-0.39063,	-0.26554,	-0.19849,	-0.27180,	-0.42578,	-0.57397,	-0.80082,	-0.92374,	-0.98147,	-1.05747,	-1.08324,	-1.15398,	-1.28669,	-1.27873,	-1.22131,	-1.00321,	-0.76048,	-0.63409,	-0.49764,	-0.30542,	-0.07188,	0.01780,	0.11217,	0.30711,	0.45656,	0.57107
-2.60261,	-2.72033,	-2.68437,	-2.72022,	-2.83450,	-2.72478,	-2.62637,	-2.61270,	-2.72824,	-2.76321,	-2.77234,	-2.69813,	-2.53527,	-2.51975,	-2.41891,	-2.45183,	-2.58674,	-2.57592,	-2.31826,	-2.10573,	-1.91352,	-1.90021,	-1.86509,	-1.71551,	-1.60407,	-1.57847,	-1.55555,	-1.46811,	-1.32523,	-1.15838,	-1.13640,	-1.01980,	-0.89441,	-1.01006,	-1.07782,	-1.07335,	-1.25773,	-1.35459,	-1.40843,	-1.43075,	-1.52244,	-1.61185,	-1.59614,	-1.57311,	-1.58116,	-1.72238,	-1.68216,	-1.55573,	-1.52710,	-1.37963,	-1.07746,	0.00000,	0.00000,	0.00000,	0.00000,	0.00000,	0.00000,	0.00000,	0.00000,	0.00000,	0.00000,	0.00000,	0.00000,	0.00000,	0.00000,	0.00000,	-0.54507,	-0.24628,	-0.15372,	0.01287,	0.12510,	0.24838,	0.37332,	0.50088,	0.66836,	0.66910,	0.69806,	0.73196,	0.98989,	1.41847,	1.69765,	1.90898,	2.23207,	2.52226,	2.76694,	2.80933,	2.69362,	2.70468,	2.64984,	2.49027,	2.40794,	2.39145,	2.34245,	2.32195,	2.22402,	2.14228,	2.15574,	2.11292,	2.21799,	2.37804,	2.27758,	2.13233,	2.07692,	1.97628,	1.82455,	1.63778,	1.59816,	1.49639,	1.38509,	1.25040,	1.09880,	1.03827,	0.74384,	0.43121,	0.00000,	0.00000,	0.00000,	0.00000,	0.00000,	0.00000,	0.00000,	0.00000,	0.92768,	0.89180,	0.89420,	1.08556,	1.24900,	1.16983,	1.10921,	0.95865,	0.84808,	0.96291,	1.01691,	1.06184,	1.10470,	0.92099,	0.75664,	0.59731,	0.00000,	0.55221,	0.38547,	0.10702,	-0.13131,	-0.07512,	-0.07385,	-0.13084,	-0.02305,	0.19647,	0.31550,	0.37254,	0.32182,	0.49707,	0.65145,	0.73459,	0.84438,	0.97650,	1.01729,	1.12889,	1.25439,	1.16737,	1.05560,	0.84858,	0.70025,	0.66962,	0.51550,	0.29145,	0.23785,	0.05123,	-0.08019,	-0.18155,	-0.14255,	-0.13432,	-0.22472,	-0.40154,	-0.65530,	-0.74441,	-0.80417,	-0.89022,	-0.93189,	-1.00140,	-1.10463,	-1.04710,	-1.24867,	-1.42908,	-1.56285,	-1.61670,	-1.66001,	-1.85337,	-2.13047,	-2.27788,	-2.26732,	-2.25246,	-2.13345,	-2.04645,	-2.08400,	-2.11847,	-2.21328,	-2.38247,	-2.39991,	-2.57053,	-2.78760,	-3.06843,	-3.18779,	-3.21698,	-3.20415,	-3.17927,	-3.14775,	-2.84093,	-2.65451,	-2.60721,	-2.39630,	-2.06354,	-1.90304,	-1.77337,	-1.77871,	-1.64265,	-1.48879,	-1.31899,	-1.09355,	-0.92086,	-0.90480,	-0.84293,	-0.58554,	-0.48984,	-0.42997,	-0.43929,	-0.51013,	-0.51758,	-0.51971,	-0.57952,	-0.47681,	-0.46357,	-0.55926,	-0.74180,	-0.83387,	-0.93064,	-0.97475,	-1.07531,	-1.37754,	-1.61605,	-1.75360,	-1.94201,	-2.11670,	-2.20676,	-2.25894,	-2.13934,	-2.16421,	-2.30345,	-2.46008,	-2.63391,	-2.72623,	-2.66238,	-2.61005,	-2.49709,	-2.36464,	-2.48142,	-2.52171,	-2.44832,	-2.39295,	-2.24831,	-2.08452,	-2.08024,	-1.89947,	-1.71007,	-1.56020,	-1.54733,	-1.48271,	-1.33665,	-1.28647,	-1.28066,	-1.25974,	-1.03193,	-0.81355,	-0.79927,	-0.73311,	-0.57256,	-0.56865,	-0.48518,	-0.41529,	-0.35571,	-0.30825,	-0.27308,	-0.15385,	-0.08060,	-0.21128,	-0.40398,	-0.46026,	-0.69935,	-0.90331,	-0.97180,	-1.10395,	-1.11965,	-1.14647,	-1.27145,	-1.27322,	-1.21863,	-1.03881,	-0.82041,	-0.62453,	-0.43737,	-0.23702,	0.01980,	0.05228,	0.08041,	0.25959,	0.42428,	0.61934
