-1.34644,	-1.47361,	-1.53187,	-1.48708,	-1.56282,	-1.70254,	-1.80862,	-1.94701,	-2.06263,	-2.12335,	-2.12785,	-2.06730,	-1.98940,	-1.92827,	-1.92138,	-1.97823,	-1.94626,	-1.82695,	-1.79545,	-1.61289,	-1.31141,	-1.09501,	-0.83435,	-0.67779,	-0.48952,	-0.31639,	0.00340,	0.37901,	0.62707,	0.84559,	1.02649,	1.00910,	0.90608,	0.87987,	0.86931,	0.81570,	0.61183,	0.38927,	0.36101,	0.37689,	0.46197,	0.64923,	0.81844,	0.88642,	0.93206,	0.97948,	0.99212,	0.90463,	0.91880,	0.99682,	0.90990,	0.76663,	0.65217,	0.36948,	0.19720,	0.01336,	-0.09402,	-0.14649,	-0.09238,	-0.05576,	-0.24908,	-0.47429,	-0.53581,	-0.54390,	-0.60316,	-0.62369,	-0.62654,	-0.55608,	-0.47184,	-0.42515,	-0.31115,	-0.22358,	-0.19563,	-0.26506,	-0.27240,	-0.34151,	-0.41926,	-0.46883,	-0.51950,	-0.55417,	-0.46126,	-0.35250,	-0.44596,	-0.72747,	-0.86635,	-1.06867,	-1.08735,	-1.02662,	-0.97896,	-1.06535,	-1.16213,	-1.18249,	-1.20807,	-1.09848,	-0.87195,	-0.77034,	-0.84368,	-0.82328,	-0.72056,	-0.56546,	-0.44226,	-0.34935,	-0.23165,	-0.21665,	-0.22439,	-0.20096,	-0.08228,	0.00864,	0.13992,	0.26886,	0.29642,	0.15758,	0.02760,	-0.05493,	-0.17674,	-0.39725,	-0.37657,	-0.32680,	-0.20173,	-0.18083,	-0.27413,	-0.51703,	-0.66658,	-0.65464,	-0.76955,	-0.98634,	-1.10135,	-1.17575,	-1.34359,	-1.46551,	-1.54970,	-1.47560,	-1.45286,	-1.62726,	-1.73769,	-1.91731,	-2.14330,	-2.37263,	-2.51239,	-2.52356,	-2.47248,	-2.42785,	-2.43257,	-2.62035,	-2.73327,	-2.70371,	-2.60122,	-2.52124,	-2.30885,	-2.18707,	-2.03110,	-1.84216,	-1.57520,	-1.36704,	-1.18229,	-0.99470,	-0.94494,	-0.96127,	-0.85701,	-0.73391,	-0.68559,	-0.54349,	-0.50240,	-0.48576,	-0.44556,	-0.42162,	-0.21776,	0.03723,	0.33039,	0.57317,	0.72954,	0.80180,	0.75101,	0.57832,	0.38131,	0.06749,	-0.15459,	-0.16402,	-0.21369,	-0.45851,	-0.65217,	-0.85801,	-0.91622,	-0.83582,	-0.76780,	-0.87738,	-1.04272,	-1.11458,	-1.21319,	-1.35863,	-1.31587,	-1.05448,	-0.90630,	-0.80280,	-0.66483,	-0.50339,	-0.35053,	-0.36490,	-0.35558,	-0.24933,	-0.14788,	-0.07590,	-0.12679,	-0.26137,	-0.35078,	-0.38294,	-0.26653,	-0.15848,	-0.15362,	-0.12877,	-0.19046,	-0.35994,	-0.34351,	-0.25492,	-0.22355,	-0.25160,	-0.31214,	-0.41839,	-0.48717,	-0.44016,	-0.36916,	-0.38935,	-0.44532,	-0.46124,	-0.59314,	-0.72130,	-0.79380,	-0.81773,	-0.71584,	-0.69852,	-0.68145,	-0.60181,	-0.57850,	-0.60545,	-0.60242,	-0.60119,	-0.55110,	-0.42372,	-0.28442,	-0.24032,	-0.30184,	-0.21503,	0.02288,	0.22895,	0.40671,	0.45684,	0.36483,	0.29659,	0.20134,	0.02993,	-0.13763,	-0.10728,	-0.12691,	-0.28187,	-0.36734,	-0.37774,	-0.50178,	-0.68790,	-0.78955,	-0.75934,	-0.65567,	-0.67477,	-0.78230,	-0.87978,	-0.92928,	-0.95141,	-0.84997,	-0.66629,	-0.59649,	-0.61834,	-0.72492,	-0.81274,	-0.90002,	-0.84027,	-0.83291,	-0.99363,	-1.14873,	-1.18022,	-1.27169,	-1.30096,	-1.32251,	-1.36664,	-1.60698,	-1.79451,	-2.02611,	-2.36853,	-2.63019,	-2.69088,	-2.72443,	-2.86762,	-2.97454,	-2.98961,	-2.92060,	-2.92202,	-2.94254,	-2.90132,	-2.82751,	-2.75948,	-2.77091,	-2.86088,	-3.07997,	-3.26246,	-3.28390,	-3.22983,	-3.30626,	-3.40516,	-3.41040
-1.10331,	-1.24787,	-1.29561,	-1.26134,	-1.42444,	-1.64385,	-1.77966,	-1.82548,	-1.86520,	-1.91552,	-1.90586,	-1.93102,	-1.93996,	-1.88023,	-1.82766,	-1.76931,	-1.64406,	-1.54647,	-1.58948,	-1.45630,	-1.18786,	-1.01836,	-0.75421,	-0.55088,	-0.38750,	-0.24927,	0.04561,	0.44705,	0.72142,	0.87291,	1.00909,	1.06001,	1.01418,	0.92012,	0.85172,	0.79830,	0.56849,	0.36230,	0.36718,	0.45127,	0.57412,	0.72930,	0.91379,	0.98489,	1.05149,	1.16278,	1.19268,	1.09275,	1.08645,	1.08989,	0.95512,	0.83668,	0.77513,	0.51955,	0.29527,	0.10045,	-0.01779,	-0.05083,	0.06681,	0.18322,	0.07087,	-0.16985,	-0.26504,	-0.21293,	-0.20688,	-0.26452,	-0.28459,	-0.12990,	-0.00910,	0.02437,	0.07903,	0.08727,	0.06349,	-0.04736,	0.02263,	0.02583,	-0.05693,	-0.16367,	-0.29965,	-0.36814,	-0.24010,	-0.11171,	-0.17599,	-0.42385,	-0.60540,	-0.88123,	-1.02762,	-1.00586,	-0.97591,	-1.05121,	-1.08480,	-1.04861,	-1.02236,	-0.98919,	-0.89558,	-0.77765,	-0.74407,	-0.69586,	-0.60522,	-0.44532,	-0.39916,	-0.40560,	-0.38577,	-0.38522,	-0.32464,	-0.25456,	-0.04970,	0.05328,	0.12479,	0.16336,	0.12525,	-0.01697,	-0.05828,	-0.06896,	-0.20592,	-0.42437,	-0.41302,	-0.36740,	-0.29548,	-0.27056,	-0.35789,	-0.58064,	-0.67663,	-0.63669,	-0.70684,	-0.94850,	-1.12737,	-1.10465,	-1.09847,	-1.21280,	-1.38592,	-1.40497,	-1.48933,	-1.69662,	-1.78965,	-1.87806,	-2.02121,	-2.29467,	-2.42650,	-2.39725,	-2.28196,	-2.16191,	-2.07543,	-2.21469,	-2.32903,	-2.34033,	-2.34319,	-2.32310,	-2.15499,	-2.04538,	-1.92727,	-1.73287,	-1.46815,	-1.28658,	-1.10803,	-0.90587,	-0.78516,	-0.79269,	-0.78370,	-0.68909,	-0.57731,	-0.47300,	-0.52205,	-0.50368,	-0.44214,	-0.35224,	-0.11961,	0.16156,	0.48085,	0.65055,	0.82553,	0.95653,	0.98334,	0.84439,	0.61053,	0.25535,	0.03423,	0.05321,	-0.02302,	-0.30137,	-0.53724,	-0.77402,	-0.90107,	-0.86822,	-0.83021,	-0.93731,	-1.03349,	-0.97056,	-0.90138,	-1.00701,	-1.07903,	-0.92427,	-0.73067,	-0.57940,	-0.41596,	-0.17270,	-0.03637,	-0.14141,	-0.24032,	-0.17763,	-0.03356,	0.04043,	0.05151,	-0.03204,	-0.13568,	-0.21481,	-0.16487,	-0.09830,	-0.09054,	-0.01064,	-0.05232,	-0.22453,	-0.22293,	-0.17134,	-0.21215,	-0.26227,	-0.28943,	-0.34028,	-0.35987,	-0.29071,	-0.18665,	-0.24959,	-0.43474,	-0.50635,	-0.52460,	-0.53708,	-0.63138,	-0.68584,	-0.67413,	-0.77824,	-0.81721,	-0.71139,	-0.55065,	-0.52163,	-0.51075,	-0.47157,	-0.40317,	-0.27156,	-0.14384,	-0.13138,	-0.19415,	-0.06357,	0.16809,	0.31289,	0.43227,	0.45261,	0.35102,	0.33262,	0.31328,	0.16500,	-0.01460,	-0.02308,	-0.00320,	-0.09681,	-0.17862,	-0.18366,	-0.26084,	-0.44152,	-0.64314,	-0.66043,	-0.57369,	-0.62212,	-0.70992,	-0.81053,	-0.84861,	-0.89704,	-0.83009,	-0.58014,	-0.45234,	-0.42587,	-0.51673,	-0.65900,	-0.79904,	-0.77541,	-0.83826,	-1.06632,	-1.22960,	-1.23955,	-1.34056,	-1.42407,	-1.47065,	-1.56899,	-1.84003,	-2.01708,	-2.16979,	-2.41088,	-2.71236,	-2.86035,	-2.91438,	-3.04208,	-3.18142,	-3.17243,	-3.00670,	-3.00236,	-3.04803,	-3.02668,	-2.90432,	-2.78711,	-2.80721,	-2.85198,	-3.05253,	-3.22673,	-3.26182,	-3.28676,	-3.42449,	-3.51469,	-3.50398
-0.95662,	-1.06725,	-1.19815,	-1.19115,	-1.34293,	-1.54383,	-1.68925,	-1.73776,	-1.65661,	-1.64905,	-1.73017,	-1.85191,	-1.96379,	-1.92074,	-1.77617,	-1.63092,	-1.48687,	-1.38279,	-1.36789,	-1.31309,	-1.07410,	-0.92199,	-0.70822,	-0.48255,	-0.24419,	-0.01964,	0.11705,	0.36505,	0.68112,	0.91354,	1.05199,	1.09286,	1.12957,	1.03152,	0.81287,	0.73216,	0.60318,	0.50014,	0.57131,	0.62461,	0.78481,	0.91513,	0.96267,	1.00153,	1.10403,	1.27161,	1.39838,	1.30114,	1.19735,	1.08397,	0.99598,	0.87238,	0.88130,	0.71970,	0.42313,	0.19233,	0.13433,	0.23731,	0.27548,	0.28585,	0.23630,	0.10218,	0.01507,	0.00336,	0.05910,	0.06381,	-0.00225,	0.19270,	0.45366,	0.51827,	0.54148,	0.37990,	0.28754,	0.20393,	0.21520,	0.20827,	0.14065,	-0.00970,	-0.11036,	-0.21059,	-0.13516,	-0.05534,	0.01631,	-0.16427,	-0.34012,	-0.59364,	-0.85392,	-0.90134,	-0.85646,	-0.79530,	-0.84933,	-0.92306,	-0.89359,	-0.83726,	-0.81201,	-0.76517,	-0.64613,	-0.46886,	-0.38963,	-0.27705,	-0.20447,	-0.29952,	-0.35252,	-0.44330,	-0.34435,	-0.15435,	0.01306,	0.03025,	0.02120,	-0.07541,	-0.08950,	-0.20246,	-0.18343,	-0.17720,	-0.22826,	-0.43146,	-0.43486,	-0.34449,	-0.34444,	-0.35045,	-0.41972,	-0.50490,	-0.61445,	-0.75247,	-0.88176,	-1.03922,	-1.16806,	-1.13256,	-1.01900,	-1.04144,	-1.27755,	-1.44672,	-1.53419,	-1.72256,	-1.76731,	-1.86812,	-1.99195,	-2.19534,	-2.37156,	-2.42761,	-2.29364,	-2.16490,	-1.91631,	-1.92570,	-2.01148,	-2.08649,	-2.06641,	-2.06658,	-1.96615,	-1.82570,	-1.74670,	-1.58985,	-1.35166,	-1.11311,	-0.97883,	-0.93433,	-0.84258,	-0.70835,	-0.61887,	-0.58655,	-0.49832,	-0.40157,	-0.51707,	-0.55622,	-0.36441,	-0.14757,	0.15188,	0.36402,	0.56985,	0.71368,	0.85063,	0.92589,	1.03300,	0.91841,	0.72702,	0.40192,	0.19123,	0.15719,	0.11600,	-0.13271,	-0.42356,	-0.63997,	-0.82675,	-0.89721,	-0.91314,	-0.89370,	-0.87970,	-0.86179,	-0.78445,	-0.77042,	-0.79793,	-0.78269,	-0.65090,	-0.41712,	-0.22989,	-0.03710,	0.13780,	0.04997,	-0.06853,	-0.11525,	-0.05903,	0.07390,	0.16172,	0.06697,	-0.02425,	-0.13593,	-0.08897,	-0.00496,	0.00703,	0.06244,	0.08915,	-0.00271,	-0.04492,	-0.01799,	-0.12120,	-0.22193,	-0.23068,	-0.10258,	0.01590,	-0.05112,	-0.09650,	-0.17494,	-0.33955,	-0.45686,	-0.43393,	-0.29184,	-0.36343,	-0.55479,	-0.63753,	-0.78713,	-0.83097,	-0.74451,	-0.57253,	-0.43746,	-0.39354,	-0.42637,	-0.35305,	-0.22912,	-0.09170,	-0.02931,	-0.08415,	-0.00304,	0.20512,	0.35483,	0.39664,	0.44178,	0.39143,	0.39657,	0.42201,	0.38801,	0.29134,	0.06730,	-0.08127,	-0.11138,	-0.09605,	-0.10677,	-0.20811,	-0.31279,	-0.52040,	-0.68159,	-0.63312,	-0.60804,	-0.59916,	-0.66886,	-0.78047,	-0.79626,	-0.70535,	-0.53228,	-0.40469,	-0.34013,	-0.39740,	-0.48291,	-0.65101,	-0.75675,	-0.92240,	-1.10685,	-1.28948,	-1.24444,	-1.29536,	-1.45693,	-1.58613,	-1.70401,	-1.88814,	-2.16338,	-2.37647,	-2.50967,	-2.73416,	-2.95228,	-3.14476,	-3.26014,	-3.35826,	-3.39047,	-3.16176,	-3.03423,	-3.05953,	-3.05335,	-3.00131,	-2.84631,	-2.80593,	-2.91031,	-3.13727,	-3.30748,	-3.39107,	-3.41614,	-3.57890,	-3.69298,	-3.67917
-0.95729,	-1.00034,	-1.08759,	-1.17271,	-1.35568,	-1.47627,	-1.57626,	-1.63845,	-1.54911,	-1.48268,	-1.54138,	-1.68258,	-1.84474,	-1.85098,	-1.68914,	-1.45686,	-1.24408,	-1.18271,	-1.21218,	-1.18303,	-1.02279,	-0.88823,	-0.61844,	-0.41446,	-0.25010,	0.00625,	0.17230,	0.39309,	0.70160,	0.93581,	1.12348,	1.12799,	1.05810,	0.99015,	0.86756,	0.80076,	0.66474,	0.62720,	0.70457,	0.73708,	0.87705,	0.95644,	0.99703,	1.11054,	1.33970,	1.51549,	1.58821,	1.47587,	1.33541,	1.11980,	0.93915,	0.81859,	0.85908,	0.78938,	0.59884,	0.32974,	0.20366,	0.37083,	0.44511,	0.46834,	0.48958,	0.38863,	0.32072,	0.26188,	0.26967,	0.39545,	0.46841,	0.62101,	0.77902,	0.86016,	0.89430,	0.62876,	0.43068,	0.34119,	0.37772,	0.40875,	0.41422,	0.23993,	0.13082,	0.02734,	0.06976,	0.05030,	0.04430,	-0.06784,	-0.23098,	-0.43626,	-0.56212,	-0.66714,	-0.79669,	-0.73334,	-0.71107,	-0.77267,	-0.71913,	-0.67833,	-0.61453,	-0.53714,	-0.47335,	-0.23662,	-0.07579,	-0.01265,	-0.10660,	-0.30642,	-0.37194,	-0.45051,	-0.30905,	-0.09718,	0.03498,	-0.00633,	-0.03437,	-0.20633,	-0.26735,	-0.36057,	-0.26213,	-0.24143,	-0.37900,	-0.58058,	-0.57596,	-0.45413,	-0.34713,	-0.35367,	-0.54652,	-0.63493,	-0.71525,	-0.87335,	-0.90958,	-0.98126,	-1.05819,	-1.05217,	-1.05937,	-1.03979,	-1.14088,	-1.38229,	-1.65007,	-1.85021,	-1.84099,	-1.91079,	-2.02446,	-2.20203,	-2.32103,	-2.38613,	-2.22130,	-2.11067,	-1.82839,	-1.71881,	-1.72311,	-1.77876,	-1.82419,	-1.88946,	-1.89098,	-1.78511,	-1.57945,	-1.41316,	-1.34101,	-1.16149,	-0.95981,	-0.86747,	-0.68017,	-0.49029,	-0.40199,	-0.39793,	-0.48975,	-0.47970,	-0.46344,	-0.41278,	-0.22996,	-0.00374,	0.29235,	0.45148,	0.55669,	0.64998,	0.79886,	0.87616,	1.08786,	1.01704,	0.79691,	0.48749,	0.34497,	0.32458,	0.19729,	-0.08039,	-0.41110,	-0.66142,	-0.78083,	-0.82477,	-0.89545,	-0.84256,	-0.73852,	-0.71240,	-0.57305,	-0.46234,	-0.43642,	-0.49812,	-0.55504,	-0.36152,	-0.04726,	0.19890,	0.26885,	0.12185,	0.02204,	-0.08111,	-0.13041,	-0.04984,	0.10575,	0.09068,	0.07922,	0.02858,	0.07180,	0.11629,	0.10791,	0.17025,	0.17424,	0.05517,	-0.03473,	-0.04245,	-0.01061,	0.02669,	-0.00109,	0.10227,	0.24558,	0.16790,	0.07590,	-0.02324,	-0.13843,	-0.19269,	-0.19868,	-0.10772,	-0.13047,	-0.33312,	-0.59574,	-0.87109,	-0.92356,	-0.83935,	-0.66344,	-0.50659,	-0.43268,	-0.44279,	-0.28797,	-0.10677,	0.01023,	0.06944,	0.02508,	0.08772,	0.19149,	0.26666,	0.33500,	0.41582,	0.46589,	0.56143,	0.55096,	0.49843,	0.45060,	0.14994,	-0.06420,	-0.04701,	0.01999,	0.04423,	-0.13289,	-0.30630,	-0.41908,	-0.54868,	-0.64239,	-0.73703,	-0.66757,	-0.66543,	-0.80339,	-0.79134,	-0.64859,	-0.49415,	-0.37009,	-0.23684,	-0.26567,	-0.37253,	-0.57312,	-0.71169,	-0.91612,	-1.14005,	-1.30948,	-1.29850,	-1.33831,	-1.42069,	-1.67200,	-1.94135,	-2.05839,	-2.24889,	-2.39515,	-2.47482,	-2.71075,	-2.97388,	-3.30687,	-3.55470,	-3.58758,	-3.50079,	-3.27882,	-3.22147,	-3.24355,	-3.22111,	-3.17754,	-3.02150,	-2.94689,	-3.02096,	-3.23821,	-3.37153,	-3.50468,	-3.54869,	-3.63948,	-3.67694,	-3.68386
-0.94021,	-1.02024,	-1.09871,	-1.17230,	-1.33311,	-1.34531,	-1.37944,	-1.44374,	-1.43106,	-1.42322,	-1.40443,	-1.46664,	-1.57805,	-1.61168,	-1.41909,	-1.13986,	-1.00103,	-0.99413,	-0.94904,	-0.81098,	-0.78177,	-0.74954,	-0.58799,	-0.38107,	-0.27979,	-0.14295,	0.14499,	0.39717,	0.65453,	0.84321,	0.96493,	1.02396,	0.98981,	0.87877,	0.82919,	0.88708,	0.76340,	0.73908,	0.76513,	0.80426,	0.92906,	0.93469,	1.05656,	1.27239,	1.55795,	1.65033,	1.61723,	1.53496,	1.34466,	1.15361,	1.00858,	0.97253,	0.89955,	0.79606,	0.60526,	0.39007,	0.26536,	0.31897,	0.46009,	0.56420,	0.64410,	0.58441,	0.44753,	0.45027,	0.61817,	0.80528,	0.89505,	1.01106,	1.02427,	1.10377,	1.18532,	0.97512,	0.77842,	0.59938,	0.61690,	0.65123,	0.64703,	0.48019,	0.41646,	0.44566,	0.38716,	0.23615,	0.11793,	0.08275,	-0.16136,	-0.36463,	-0.44361,	-0.53259,	-0.70740,	-0.80384,	-0.72860,	-0.71836,	-0.67818,	-0.62255,	-0.57220,	-0.38934,	-0.19682,	-0.00021,	0.04785,	0.11992,	-0.06110,	-0.26458,	-0.25481,	-0.27214,	-0.12004,	-0.08736,	-0.10034,	-0.15764,	-0.17102,	-0.26549,	-0.34301,	-0.35998,	-0.34263,	-0.40442,	-0.60390,	-0.70628,	-0.77208,	-0.69945,	-0.62488,	-0.60898,	-0.74472,	-0.95388,	-1.03522,	-1.09088,	-1.02033,	-0.97785,	-1.10999,	-1.17936,	-1.16800,	-1.12216,	-1.19451,	-1.32478,	-1.61315,	-1.80044,	-1.75208,	-1.81898,	-1.91911,	-2.14985,	-2.23579,	-2.19816,	-2.04797,	-1.95282,	-1.74722,	-1.52694,	-1.51940,	-1.57181,	-1.62357,	-1.61793,	-1.73979,	-1.74170,	-1.56435,	-1.42555,	-1.35657,	-1.32028,	-1.09519,	-0.84996,	-0.60473,	-0.41837,	-0.47144,	-0.50521,	-0.53956,	-0.49250,	-0.43048,	-0.24568,	-0.06472,	0.06783,	0.31148,	0.45079,	0.60851,	0.70465,	0.80444,	0.90536,	1.07023,	0.99031,	0.71012,	0.47345,	0.35079,	0.28799,	0.09918,	-0.05497,	-0.36426,	-0.68596,	-0.83990,	-0.86839,	-0.79349,	-0.77019,	-0.71414,	-0.65449,	-0.50379,	-0.29644,	-0.22836,	-0.27132,	-0.26009,	-0.04981,	0.19528,	0.43345,	0.43673,	0.23776,	0.21063,	0.12727,	0.03709,	-0.02221,	0.00271,	0.04496,	0.06784,	0.11484,	0.17703,	0.25177,	0.21634,	0.19126,	0.13733,	0.07093,	-0.03607,	-0.12582,	-0.01968,	0.10831,	0.20126,	0.19026,	0.17279,	0.17530,	0.10580,	0.07614,	0.02751,	-0.00820,	0.04681,	0.08303,	-0.05553,	-0.25505,	-0.49391,	-0.77059,	-0.81176,	-0.75901,	-0.62834,	-0.56508,	-0.58844,	-0.56412,	-0.38088,	-0.15605,	-0.05441,	0.07839,	0.10325,	0.07441,	0.07593,	0.19320,	0.36955,	0.39960,	0.42606,	0.45144,	0.49298,	0.44896,	0.37215,	0.20845,	0.04203,	0.08522,	0.13515,	0.06181,	-0.09061,	-0.19270,	-0.25272,	-0.33198,	-0.46399,	-0.69316,	-0.65627,	-0.63926,	-0.76204,	-0.73091,	-0.61928,	-0.46201,	-0.35809,	-0.20655,	-0.22758,	-0.33207,	-0.51582,	-0.74084,	-0.94196,	-1.10957,	-1.20780,	-1.38604,	-1.53905,	-1.65410,	-1.88039,	-2.14362,	-2.30529,	-2.36001,	-2.45699,	-2.60359,	-2.88095,	-3.23567,	-3.48930,	-3.60943,	-3.64901,	-3.57810,	-3.38435,	-3.43618,	-3.46384,	-3.43526,	-3.38389,	-3.25027,	-3.25052,	-3.28096,	-3.44811,	-3.57671,	-3.72008,	-3.71987,	-3.62887,	-3.65434,	-3.70169
-1.03431,	-1.09810,	-1.16285,	-1.13357,	-1.19883,	-1.20999,	-1.23084,	-1.27085,	-1.26466,	-1.22969,	-1.14673,	-1.21854,	-1.34393,	-1.36383,	-1.17980,	-0.94802,	-0.87334,	-0.84254,	-0.69576,	-0.47383,	-0.41876,	-0.43685,	-0.36531,	-0.20703,	-0.14654,	-0.07552,	0.20410,	0.37692,	0.49523,	0.70477,	0.89119,	0.92844,	0.84973,	0.72824,	0.68369,	0.85172,	0.86245,	0.81578,	0.78316,	0.82853,	0.95500,	1.00242,	1.21012,	1.38072,	1.53227,	1.54762,	1.44652,	1.34546,	1.17364,	1.10426,	1.09346,	1.11192,	1.06077,	0.94482,	0.76339,	0.58871,	0.46212,	0.45773,	0.59438,	0.68637,	0.70568,	0.72871,	0.71222,	0.71874,	0.84115,	1.03095,	1.10372,	1.24255,	1.33192,	1.37596,	1.41996,	1.29255,	1.14997,	0.96966,	0.99743,	0.93619,	0.76546,	0.60240,	0.58645,	0.67352,	0.57821,	0.39101,	0.27902,	0.22251,	-0.00955,	-0.22786,	-0.32635,	-0.40560,	-0.56555,	-0.69801,	-0.62065,	-0.62195,	-0.70935,	-0.65066,	-0.50481,	-0.30642,	-0.16879,	-0.00282,	-0.00842,	0.09883,	0.06612,	-0.09168,	-0.09729,	-0.11398,	-0.02118,	-0.10464,	-0.16927,	-0.28604,	-0.41244,	-0.44310,	-0.49973,	-0.51776,	-0.57552,	-0.67938,	-0.80271,	-0.86978,	-0.93347,	-0.90761,	-0.89244,	-0.86713,	-0.93578,	-1.14371,	-1.21759,	-1.26404,	-1.29544,	-1.21954,	-1.23278,	-1.30887,	-1.38459,	-1.34759,	-1.39971,	-1.39299,	-1.44730,	-1.57498,	-1.57191,	-1.66225,	-1.78090,	-2.01950,	-2.02660,	-1.93371,	-1.91574,	-1.84610,	-1.67191,	-1.45763,	-1.46678,	-1.51265,	-1.47176,	-1.41549,	-1.50788,	-1.53065,	-1.40863,	-1.30770,	-1.24751,	-1.28611,	-1.11603,	-0.88012,	-0.76486,	-0.62351,	-0.59634,	-0.59375,	-0.66723,	-0.58750,	-0.49456,	-0.25928,	0.04573,	0.14958,	0.29353,	0.41920,	0.64043,	0.80236,	0.93919,	1.02117,	0.97525,	0.80817,	0.52178,	0.28896,	0.12947,	0.04759,	-0.05071,	-0.07593,	-0.25562,	-0.53063,	-0.71118,	-0.76922,	-0.66921,	-0.65911,	-0.63067,	-0.57349,	-0.51595,	-0.30863,	-0.07413,	0.02559,	0.02463,	0.18766,	0.35684,	0.53411,	0.61580,	0.45460,	0.40960,	0.33739,	0.23007,	0.10661,	0.08423,	0.11905,	0.02446,	0.04290,	0.13092,	0.21129,	0.14330,	0.07661,	0.05911,	0.04263,	-0.03630,	-0.13237,	-0.04289,	0.10047,	0.24813,	0.21978,	0.15382,	0.17219,	0.04667,	0.01882,	0.10758,	0.15192,	0.13121,	0.05972,	-0.12906,	-0.30629,	-0.35391,	-0.48499,	-0.57556,	-0.60249,	-0.55384,	-0.57430,	-0.61854,	-0.60088,	-0.55591,	-0.41272,	-0.28335,	-0.08771,	-0.01755,	-0.06492,	-0.04698,	0.10598,	0.30112,	0.33905,	0.33090,	0.32033,	0.40535,	0.40494,	0.37739,	0.33648,	0.16866,	0.13520,	0.22226,	0.17259,	-0.03906,	-0.17979,	-0.18751,	-0.20187,	-0.22694,	-0.38511,	-0.43906,	-0.50659,	-0.64813,	-0.63515,	-0.51801,	-0.33752,	-0.32506,	-0.27735,	-0.29114,	-0.39559,	-0.60162,	-0.88821,	-1.07290,	-1.16055,	-1.23569,	-1.44233,	-1.66603,	-1.83090,	-2.03151,	-2.24865,	-2.41862,	-2.45905,	-2.62380,	-2.92128,	-3.16026,	-3.40482,	-3.59219,	-3.69509,	-3.73913,	-3.70941,	-3.51484,	-3.50628,	-3.57716,	-3.63301,	-3.62105,	-3.52608,	-3.53264,	-3.49087,	-3.66811,	-3.89750,	-4.02174,	-3.99709,	-3.85453,	-3.84762,	-3.83460
-1.11669,	-1.13557,	-1.06277,	-1.02601,	-1.10835,	-1.17698,	-1.10320,	-1.06274,	-1.06045,	-1.01525,	-0.93240,	-0.99856,	-1.08801,	-0.99522,	-0.89985,	-0.78300,	-0.70085,	-0.65982,	-0.52933,	-0.33200,	-0.24226,	-0.27440,	-0.18197,	-0.04929,	-0.04384,	0.07600,	0.28275,	0.40776,	0.52349,	0.64124,	0.81242,	0.89681,	0.80698,	0.67874,	0.72282,	0.86086,	0.86354,	0.77804,	0.81090,	0.91815,	0.98018,	1.04674,	1.23431,	1.38082,	1.44837,	1.50536,	1.33253,	1.14409,	1.06270,	1.08059,	1.08903,	1.07438,	1.07531,	1.01037,	0.92989,	0.81645,	0.61747,	0.62496,	0.70779,	0.75821,	0.85754,	0.88147,	0.92799,	0.97649,	1.03550,	1.14044,	1.32264,	1.47929,	1.55444,	1.52604,	1.54446,	1.52438,	1.36474,	1.23275,	1.24203,	1.16167,	0.91331,	0.83255,	0.81365,	0.82151,	0.74288,	0.54963,	0.39671,	0.25134,	0.02817,	-0.19745,	-0.28406,	-0.33523,	-0.54587,	-0.62333,	-0.55163,	-0.57542,	-0.57239,	-0.56832,	-0.46443,	-0.28802,	-0.19238,	-0.10135,	0.04230,	0.19201,	0.18040,	0.01061,	-0.04698,	-0.01704,	-0.08091,	-0.20700,	-0.32164,	-0.43309,	-0.60193,	-0.55395,	-0.62144,	-0.77034,	-0.84592,	-0.91856,	-1.00325,	-1.11053,	-1.19984,	-1.23100,	-1.25228,	-1.20617,	-1.31217,	-1.42513,	-1.43284,	-1.51923,	-1.48784,	-1.43074,	-1.39668,	-1.39927,	-1.45911,	-1.53122,	-1.49694,	-1.39662,	-1.36446,	-1.45185,	-1.47697,	-1.47684,	-1.68352,	-1.90288,	-1.90545,	-1.75454,	-1.78791,	-1.67212,	-1.46927,	-1.36508,	-1.38018,	-1.38470,	-1.31815,	-1.30532,	-1.37971,	-1.39853,	-1.30347,	-1.16348,	-1.17355,	-1.23363,	-1.11659,	-1.02107,	-0.88947,	-0.76048,	-0.67835,	-0.60827,	-0.63078,	-0.63987,	-0.48716,	-0.20801,	0.05914,	0.12759,	0.19515,	0.42648,	0.64325,	0.84670,	0.95735,	1.02873,	0.88223,	0.72839,	0.52310,	0.19901,	-0.02812,	-0.09959,	-0.15552,	-0.17527,	-0.28232,	-0.47323,	-0.64581,	-0.69099,	-0.69613,	-0.70637,	-0.61150,	-0.57662,	-0.44685,	-0.23352,	0.00583,	0.18785,	0.25997,	0.31840,	0.49267,	0.70178,	0.75510,	0.58928,	0.48639,	0.51454,	0.36613,	0.20047,	0.13536,	0.17751,	0.04765,	0.08096,	0.24718,	0.21901,	0.06658,	0.00068,	-0.02270,	-0.07523,	-0.16401,	-0.24864,	-0.21825,	-0.04768,	0.07032,	0.06928,	0.12507,	0.11600,	0.04429,	0.04116,	0.10082,	0.16631,	0.15245,	-0.01544,	-0.17208,	-0.20144,	-0.17057,	-0.27054,	-0.46461,	-0.48666,	-0.49621,	-0.58714,	-0.65243,	-0.66098,	-0.70862,	-0.62270,	-0.40538,	-0.27309,	-0.23674,	-0.21008,	-0.16367,	-0.07876,	0.02759,	0.07155,	0.06671,	0.14073,	0.24208,	0.23068,	0.31511,	0.32419,	0.24707,	0.27829,	0.32947,	0.28441,	0.09107,	-0.11415,	-0.10644,	0.04339,	0.04996,	-0.10948,	-0.25827,	-0.32095,	-0.45156,	-0.51905,	-0.42009,	-0.26770,	-0.28724,	-0.30438,	-0.24321,	-0.40447,	-0.68986,	-0.96387,	-1.17608,	-1.30127,	-1.43244,	-1.59702,	-1.81570,	-1.95981,	-2.16445,	-2.45607,	-2.58701,	-2.66954,	-2.85987,	-3.08796,	-3.32891,	-3.49366,	-3.57613,	-3.70458,	-3.82645,	-3.72467,	-3.57202,	-3.59111,	-3.72323,	-3.79790,	-3.78981,	-3.82752,	-3.84601,	-3.81437,	-3.94414,	-4.17320,	-4.17184,	-4.17473,	-4.11003,	-4.00837,	-3.87860
-1.08914,	-1.09796,	-1.00576,	-0.94380,	-1.03030,	-1.05282,	-0.86991,	-0.69663,	-0.63705,	-0.68193,	-0.71875,	-0.80989,	-0.83018,	-0.72415,	-0.66953,	-0.54331,	-0.42855,	-0.41051,	-0.31510,	-0.15662,	-0.07831,	-0.12972,	-0.05821,	0.13580,	0.21611,	0.33183,	0.43631,	0.47614,	0.52748,	0.54700,	0.62935,	0.82664,	0.94764,	0.87386,	0.84992,	0.88710,	0.81118,	0.74261,	0.92124,	1.11241,	1.20453,	1.20074,	1.23659,	1.35835,	1.41235,	1.43323,	1.25017,	1.11819,	1.15439,	1.14752,	1.09892,	1.06370,	1.10546,	1.14112,	1.12365,	1.11851,	0.98995,	0.91648,	0.83554,	0.76888,	0.83578,	0.89903,	0.98700,	1.12653,	1.30025,	1.33428,	1.44346,	1.63778,	1.68500,	1.62339,	1.64257,	1.62213,	1.53969,	1.44512,	1.41606,	1.36485,	1.16688,	1.07293,	0.97682,	0.94904,	0.91149,	0.69551,	0.50471,	0.35335,	0.15509,	-0.05175,	-0.18413,	-0.23301,	-0.38650,	-0.49047,	-0.53142,	-0.54131,	-0.47602,	-0.43275,	-0.40864,	-0.31213,	-0.15599,	-0.10134,	0.04483,	0.24247,	0.24153,	0.05810,	-0.01487,	-0.01746,	-0.14417,	-0.30317,	-0.45290,	-0.52525,	-0.62752,	-0.67115,	-0.89651,	-1.12385,	-1.13931,	-1.13422,	-1.17221,	-1.22326,	-1.29627,	-1.39578,	-1.54500,	-1.56971,	-1.62500,	-1.64762,	-1.65466,	-1.72596,	-1.69362,	-1.62841,	-1.54519,	-1.43268,	-1.33118,	-1.46055,	-1.60298,	-1.55419,	-1.48731,	-1.50153,	-1.40570,	-1.34116,	-1.52117,	-1.73584,	-1.81545,	-1.67656,	-1.64685,	-1.52792,	-1.38274,	-1.28179,	-1.20021,	-1.15292,	-1.09820,	-1.10307,	-1.15630,	-1.19489,	-1.18006,	-1.00567,	-0.92026,	-0.93391,	-0.97647,	-1.05837,	-1.03684,	-0.91404,	-0.73618,	-0.57975,	-0.41358,	-0.44699,	-0.46173,	-0.25460,	-0.08268,	-0.01307,	0.16700,	0.49617,	0.77314,	0.93005,	0.91037,	0.91383,	0.82574,	0.74588,	0.54369,	0.24884,	0.08327,	-0.01172,	-0.11879,	-0.18128,	-0.24247,	-0.34870,	-0.53168,	-0.60128,	-0.62253,	-0.64106,	-0.56759,	-0.51673,	-0.40626,	-0.24277,	-0.09435,	0.05768,	0.30125,	0.41995,	0.52610,	0.71034,	0.73760,	0.57992,	0.53433,	0.61127,	0.48509,	0.31524,	0.18122,	0.21663,	0.17853,	0.26035,	0.36356,	0.24388,	0.09273,	-0.01125,	-0.09433,	-0.12291,	-0.14056,	-0.15923,	-0.22406,	-0.14941,	-0.04841,	0.02581,	0.15631,	0.14172,	0.07203,	0.00475,	-0.02479,	-0.00212,	0.05874,	-0.00027,	-0.13543,	-0.11198,	-0.06447,	-0.24051,	-0.46694,	-0.49534,	-0.48407,	-0.52537,	-0.62983,	-0.66529,	-0.70543,	-0.67168,	-0.55876,	-0.54517,	-0.46596,	-0.32893,	-0.24635,	-0.17156,	-0.10264,	-0.05947,	-0.03601,	0.08599,	0.21591,	0.21823,	0.23579,	0.20124,	0.19684,	0.28421,	0.36681,	0.32414,	0.21166,	0.09710,	0.04412,	0.14909,	0.14834,	-0.02939,	-0.15146,	-0.13279,	-0.21093,	-0.25924,	-0.23894,	-0.19536,	-0.21506,	-0.26699,	-0.26596,	-0.44820,	-0.65981,	-0.83283,	-1.10827,	-1.30767,	-1.48755,	-1.60276,	-1.75743,	-1.92278,	-2.12110,	-2.46086,	-2.68950,	-2.88815,	-3.11795,	-3.28054,	-3.43304,	-3.52288,	-3.52150,	-3.61423,	-3.86605,	-3.90622,	-3.78758,	-3.80167,	-3.88740,	-3.84725,	-3.83165,	-3.93450,	-4.06146,	-4.15842,	-4.21575,	-4.30539,	-4.24073,	-4.26699,	-4.18386,	-3.95278,	-3.69886
-1.01795,	-0.89422,	-0.80478,	-0.76836,	-0.72965,	-0.69154,	-0.50144,	-0.34632,	-0.29850,	-0.28194,	-0.43713,	-0.63260,	-0.62488,	-0.53837,	-0.45286,	-0.30806,	-0.23761,	-0.28780,	-0.21057,	-0.11044,	-0.01843,	0.01625,	0.07576,	0.23388,	0.39434,	0.53485,	0.53583,	0.51675,	0.52763,	0.54946,	0.62780,	0.82090,	1.04031,	1.14242,	1.12918,	1.02566,	0.97204,	0.88565,	1.03769,	1.19077,	1.27332,	1.37532,	1.34022,	1.35486,	1.38405,	1.32618,	1.19888,	1.13848,	1.18596,	1.06430,	0.97798,	0.93618,	1.03675,	1.23263,	1.28378,	1.28972,	1.26485,	1.20081,	0.97436,	0.83097,	0.89039,	1.03614,	1.20520,	1.32422,	1.50468,	1.56163,	1.64247,	1.73760,	1.82482,	1.78888,	1.75703,	1.67330,	1.59836,	1.64554,	1.64712,	1.50882,	1.33581,	1.17290,	1.05293,	0.99493,	0.93167,	0.63986,	0.42923,	0.28259,	0.13566,	0.03848,	-0.06100,	-0.17448,	-0.29423,	-0.35920,	-0.47673,	-0.45042,	-0.32511,	-0.18348,	-0.10779,	-0.15263,	-0.09631,	-0.08381,	0.06962,	0.18067,	0.25714,	0.15252,	0.03179,	-0.05753,	-0.31144,	-0.42229,	-0.50118,	-0.65473,	-0.75437,	-0.97790,	-1.30315,	-1.56862,	-1.58087,	-1.58653,	-1.58912,	-1.55149,	-1.52488,	-1.54748,	-1.69280,	-1.81893,	-1.85490,	-1.75467,	-1.77420,	-1.80842,	-1.73586,	-1.62498,	-1.41735,	-1.30037,	-1.22929,	-1.37291,	-1.56145,	-1.67402,	-1.56887,	-1.46985,	-1.34064,	-1.29724,	-1.54511,	-1.69495,	-1.71250,	-1.70632,	-1.65071,	-1.57948,	-1.45485,	-1.32587,	-1.18797,	-1.16729,	-1.13398,	-1.12531,	-1.13850,	-1.09391,	-0.99607,	-0.82453,	-0.70989,	-0.59681,	-0.72063,	-0.92971,	-1.00042,	-0.92667,	-0.63463,	-0.46303,	-0.27827,	-0.28514,	-0.29703,	-0.24371,	-0.16435,	-0.03226,	0.19542,	0.53543,	0.73138,	0.84737,	0.87701,	0.74494,	0.67619,	0.61925,	0.44379,	0.25351,	0.19497,	0.04693,	-0.12510,	-0.19801,	-0.22324,	-0.21940,	-0.31369,	-0.43625,	-0.52841,	-0.51303,	-0.47443,	-0.45899,	-0.38263,	-0.25451,	-0.09524,	-0.00481,	0.22115,	0.37544,	0.55161,	0.65432,	0.64578,	0.60325,	0.58902,	0.63276,	0.43174,	0.27410,	0.24137,	0.19494,	0.17523,	0.25728,	0.29938,	0.15519,	0.01297,	-0.16753,	-0.29741,	-0.25887,	-0.19896,	-0.05734,	-0.02999,	-0.04351,	-0.05921,	0.04343,	0.19096,	0.14596,	0.10287,	0.02838,	0.02845,	0.01275,	-0.01278,	-0.03259,	-0.03870,	-0.02816,	-0.07108,	-0.25206,	-0.50247,	-0.59763,	-0.65808,	-0.66523,	-0.64206,	-0.70429,	-0.75378,	-0.76639,	-0.76930,	-0.79528,	-0.66798,	-0.51256,	-0.43413,	-0.30323,	-0.22229,	-0.11444,	0.03559,	0.16207,	0.21033,	0.24720,	0.22889,	0.13171,	0.19693,	0.34863,	0.53093,	0.50778,	0.33295,	0.22177,	0.19531,	0.21888,	0.11490,	0.00897,	-0.07833,	-0.06229,	-0.16894,	-0.21836,	-0.11579,	-0.15649,	-0.25789,	-0.33092,	-0.39047,	-0.52331,	-0.64986,	-0.75230,	-1.07307,	-1.28611,	-1.51122,	-1.60153,	-1.64096,	-1.80297,	-2.05380,	-2.38147,	-2.63916,	-2.95273,	-3.20996,	-3.31811,	-3.34576,	-3.34844,	-3.44184,	-3.64269,	-3.93100,	-4.08135,	-4.10726,	-4.03993,	-4.04832,	-3.93746,	-3.91633,	-4.07733,	-4.15275,	-4.28585,	-4.36049,	-4.33546,	-4.25433,	-4.20979,	-4.06869,	-3.79112,	-3.52478
-0.85233,	-0.60222,	-0.44490,	-0.40331,	-0.32040,	-0.30604,	-0.18015,	-0.04962,	-0.02053,	-0.08128,	-0.32476,	-0.50904,	-0.47024,	-0.33200,	-0.19017,	-0.07645,	-0.05304,	-0.08873,	0.02454,	0.06976,	0.11202,	0.13287,	0.12935,	0.24676,	0.40419,	0.60048,	0.66518,	0.62656,	0.61979,	0.58909,	0.60722,	0.83884,	1.11874,	1.33249,	1.43108,	1.32107,	1.26917,	1.08240,	1.07303,	1.18429,	1.29438,	1.40738,	1.31648,	1.30650,	1.29931,	1.21851,	1.14602,	1.10036,	1.14235,	1.04575,	1.03620,	0.99446,	1.05225,	1.24017,	1.25055,	1.25879,	1.27545,	1.28559,	1.15995,	1.03573,	1.13255,	1.26104,	1.33002,	1.44083,	1.64805,	1.73339,	1.86302,	1.89178,	1.96266,	1.92595,	1.84973,	1.81871,	1.83263,	1.87595,	1.76012,	1.55793,	1.34986,	1.18260,	1.12561,	1.05651,	0.96173,	0.66483,	0.48960,	0.30764,	0.12212,	0.04969,	-0.06758,	-0.17044,	-0.26489,	-0.26010,	-0.22272,	-0.16023,	-0.03015,	0.09523,	0.06717,	-0.02711,	0.00673,	-0.04751,	0.10402,	0.16137,	0.25701,	0.20740,	0.03433,	-0.09420,	-0.36531,	-0.54801,	-0.76774,	-0.97432,	-1.10785,	-1.37505,	-1.65308,	-1.93332,	-2.00260,	-2.03723,	-1.97426,	-1.89744,	-1.84756,	-1.80736,	-1.95862,	-2.05554,	-2.03833,	-1.87438,	-1.75861,	-1.74930,	-1.64180,	-1.52073,	-1.40197,	-1.32276,	-1.23674,	-1.35628,	-1.44734,	-1.55397,	-1.43270,	-1.33231,	-1.30715,	-1.32873,	-1.56118,	-1.69983,	-1.80979,	-1.84237,	-1.78274,	-1.71798,	-1.54087,	-1.41636,	-1.29385,	-1.28226,	-1.18734,	-1.14812,	-1.17637,	-1.07662,	-0.94865,	-0.76466,	-0.65170,	-0.49573,	-0.48812,	-0.68198,	-0.78331,	-0.79723,	-0.66127,	-0.53296,	-0.28591,	-0.20172,	-0.08714,	-0.06037,	-0.04852,	0.03051,	0.15233,	0.44712,	0.66866,	0.79533,	0.74270,	0.55888,	0.47171,	0.40572,	0.32478,	0.21444,	0.20948,	0.07986,	-0.03033,	-0.05209,	-0.09286,	-0.09721,	-0.24294,	-0.41986,	-0.54882,	-0.54276,	-0.42969,	-0.41419,	-0.36191,	-0.24328,	-0.16455,	-0.09811,	0.17447,	0.35518,	0.60623,	0.70650,	0.69528,	0.70430,	0.65736,	0.66809,	0.49353,	0.34632,	0.20056,	0.05412,	0.01558,	0.07766,	0.16337,	0.04729,	-0.10811,	-0.29045,	-0.34396,	-0.23975,	-0.18843,	0.00228,	0.06466,	0.03116,	-0.02512,	0.01432,	0.19620,	0.19924,	0.19105,	0.17423,	0.12448,	0.02897,	-0.01677,	-0.04373,	0.02239,	0.06382,	-0.01025,	-0.19085,	-0.49774,	-0.66984,	-0.75026,	-0.75478,	-0.80253,	-0.93454,	-0.97585,	-1.00520,	-0.98637,	-0.95421,	-0.81022,	-0.67075,	-0.55234,	-0.34917,	-0.27027,	-0.15882,	-0.00745,	0.06382,	0.08769,	0.14771,	0.23771,	0.28090,	0.40805,	0.59157,	0.71320,	0.58237,	0.40077,	0.31655,	0.33984,	0.38942,	0.24162,	0.12799,	-0.02927,	-0.09859,	-0.19091,	-0.20427,	-0.14855,	-0.28867,	-0.41379,	-0.48227,	-0.49638,	-0.56936,	-0.70059,	-0.78722,	-1.04501,	-1.17620,	-1.43451,	-1.61593,	-1.69655,	-1.90529,	-2.13061,	-2.39049,	-2.56781,	-2.79253,	-3.06965,	-3.19514,	-3.26487,	-3.36224,	-3.47526,	-3.67830,	-3.95976,	-4.11106,	-4.24048,	-4.20311,	-4.23084,	-4.14701,	-4.06170,	-4.15082,	-4.22394,	-4.39755,	-4.42292,	-4.35429,	-4.22131,	-4.06777,	-3.89532,	-3.61979,	-3.35390
-0.61173,	-0.35480,	-0.24657,	-0.21374,	-0.13905,	-0.07566,	-0.04157,	0.05622,	0.12658,	-0.06714,	-0.24879,	-0.29987,	-0.31342,	-0.21587,	0.01471,	0.15132,	0.16466,	0.21509,	0.28002,	0.30258,	0.37782,	0.30916,	0.26317,	0.38518,	0.49579,	0.60680,	0.70704,	0.74666,	0.69993,	0.66445,	0.71516,	0.90849,	1.21083,	1.42641,	1.49344,	1.41149,	1.35024,	1.17680,	1.04565,	1.05671,	1.22242,	1.27644,	1.29508,	1.42375,	1.34374,	1.14594,	1.09071,	1.05088,	1.06721,	1.12735,	1.15839,	1.12516,	1.24341,	1.32541,	1.29074,	1.35671,	1.39597,	1.37781,	1.31107,	1.27774,	1.31756,	1.36025,	1.41072,	1.49566,	1.72955,	1.82066,	1.85912,	1.86352,	1.92448,	1.94881,	1.89717,	1.84669,	1.97229,	1.90086,	1.76675,	1.70502,	1.47562,	1.24358,	1.22971,	1.18185,	1.02384,	0.81047,	0.60434,	0.32632,	0.20289,	0.08780,	-0.01282,	0.04263,	0.05657,	0.05918,	0.11638,	0.18996,	0.21337,	0.21052,	0.16428,	0.05704,	0.10099,	0.02836,	0.03116,	0.01398,	0.06274,	0.09163,	-0.00634,	-0.22372,	-0.43504,	-0.79013,	-1.12919,	-1.24256,	-1.37541,	-1.66750,	-1.89256,	-2.13535,	-2.30526,	-2.32020,	-2.25162,	-2.22660,	-2.06645,	-2.00012,	-2.14084,	-2.10366,	-2.00128,	-1.91122,	-1.81992,	-1.74563,	-1.66074,	-1.61690,	-1.51149,	-1.42162,	-1.28569,	-1.33884,	-1.46234,	-1.57529,	-1.50276,	-1.43560,	-1.39936,	-1.50839,	-1.62620,	-1.80663,	-1.99211,	-1.89453,	-1.78228,	-1.76638,	-1.61006,	-1.49052,	-1.45926,	-1.42177,	-1.25720,	-1.21443,	-1.11990,	-0.97761,	-0.89920,	-0.68785,	-0.53432,	-0.46062,	-0.46304,	-0.56483,	-0.66567,	-0.79829,	-0.74889,	-0.64848,	-0.37175,	-0.14162,	0.01282,	0.01712,	-0.04662,	-0.07368,	0.02643,	0.19851,	0.53025,	0.70492,	0.58745,	0.53778,	0.51984,	0.38577,	0.31579,	0.28704,	0.25990,	0.18585,	0.16629,	0.10612,	0.08610,	0.01475,	-0.26707,	-0.43197,	-0.50009,	-0.57292,	-0.54153,	-0.47634,	-0.40536,	-0.36765,	-0.30497,	-0.20543,	0.07932,	0.31177,	0.55434,	0.66979,	0.68271,	0.70847,	0.73657,	0.67475,	0.57443,	0.44468,	0.11743,	-0.01024,	0.01054,	-0.01039,	0.07650,	0.07787,	-0.07869,	-0.22897,	-0.21133,	-0.18890,	-0.12763,	0.07680,	0.09923,	0.14218,	0.19002,	0.15459,	0.20765,	0.22727,	0.25882,	0.23968,	0.21130,	0.13888,	0.06097,	0.01285,	0.02182,	-0.00300,	-0.07176,	-0.22666,	-0.46361,	-0.70622,	-0.78103,	-0.76747,	-0.96248,	-1.04439,	-0.97548,	-1.06125,	-1.07614,	-0.96893,	-0.87914,	-0.82116,	-0.64232,	-0.46840,	-0.36047,	-0.20948,	-0.14114,	-0.03367,	0.10605,	0.16781,	0.22306,	0.34904,	0.53254,	0.63862,	0.72766,	0.64792,	0.48350,	0.45048,	0.46387,	0.44187,	0.27518,	0.11822,	-0.05780,	-0.23093,	-0.33751,	-0.27050,	-0.29427,	-0.33573,	-0.30218,	-0.39546,	-0.48760,	-0.55677,	-0.75804,	-0.93425,	-1.08048,	-1.19504,	-1.44214,	-1.60813,	-1.82208,	-2.04690,	-2.14173,	-2.29078,	-2.46703,	-2.64098,	-2.90216,	-3.17914,	-3.35406,	-3.45358,	-3.54138,	-3.66579,	-3.94042,	-4.18775,	-4.37907,	-4.41365,	-4.42048,	-4.35059,	-4.25661,	-4.18659,	-4.30024,	-4.39534,	-4.26708,	-4.23269,	-4.14334,	-3.90951,	-3.71623,	-3.53711,	-3.23289
-0.49971,	-0.26796,	-0.16803,	-0.09791,	0.02641,	0.09122,	0.07011,	0.07794,	0.10356,	-0.02763,	-0.09490,	-0.14987,	-0.23421,	-0.20985,	0.00777,	0.28601,	0.47588,	0.52818,	0.50309,	0.47673,	0.53090,	0.52921,	0.57882,	0.60838,	0.58276,	0.62697,	0.67078,	0.77756,	0.82697,	0.90610,	1.02466,	1.03869,	1.15978,	1.32104,	1.41352,	1.41364,	1.42906,	1.32124,	1.17385,	1.05319,	1.06226,	1.11023,	1.27952,	1.43574,	1.32400,	1.07767,	0.94740,	0.94797,	1.10129,	1.24187,	1.25652,	1.23700,	1.36844,	1.47631,	1.50756,	1.48325,	1.37044,	1.35459,	1.31971,	1.36023,	1.40825,	1.40119,	1.48830,	1.50930,	1.62095,	1.69218,	1.71705,	1.75450,	1.91022,	1.97897,	1.96765,	1.88751,	1.90120,	1.81261,	1.80424,	1.81148,	1.56587,	1.29672,	1.20427,	1.18331,	1.16905,	1.01450,	0.74732,	0.42802,	0.28065,	0.19015,	0.23372,	0.37644,	0.38372,	0.44613,	0.45062,	0.42288,	0.37942,	0.26496,	0.27064,	0.14594,	0.06765,	0.02374,	0.02208,	-0.05417,	-0.04694,	-0.06079,	-0.13665,	-0.38845,	-0.68947,	-1.08358,	-1.35052,	-1.47332,	-1.66256,	-1.92670,	-2.18220,	-2.38203,	-2.40285,	-2.39133,	-2.43295,	-2.48184,	-2.36224,	-2.22922,	-2.16596,	-2.04135,	-2.06275,	-2.06614,	-2.04020,	-1.94181,	-1.79405,	-1.77241,	-1.60207,	-1.48446,	-1.42775,	-1.47047,	-1.54587,	-1.65881,	-1.60125,	-1.59372,	-1.56662,	-1.66563,	-1.84277,	-2.03981,	-2.11123,	-1.95865,	-1.85680,	-1.81672,	-1.71613,	-1.61091,	-1.47950,	-1.42519,	-1.33656,	-1.26041,	-1.10401,	-0.88069,	-0.71159,	-0.55738,	-0.58322,	-0.63396,	-0.65626,	-0.69524,	-0.69328,	-0.77849,	-0.66935,	-0.60266,	-0.51174,	-0.31434,	-0.08106,	-0.03760,	-0.04745,	-0.11590,	-0.06857,	0.03554,	0.28359,	0.48651,	0.52378,	0.59063,	0.60043,	0.47270,	0.33785,	0.28463,	0.35337,	0.38134,	0.34816,	0.25031,	0.11887,	-0.07507,	-0.32841,	-0.44964,	-0.61126,	-0.78927,	-0.83037,	-0.73381,	-0.56914,	-0.52394,	-0.38322,	-0.25321,	-0.11871,	0.04196,	0.33750,	0.55658,	0.68082,	0.75046,	0.80679,	0.75292,	0.60957,	0.47012,	0.22944,	0.14607,	0.11516,	0.01812,	0.03031,	0.08454,	0.09689,	0.09026,	0.02337,	-0.09826,	-0.12901,	0.00294,	0.14619,	0.33042,	0.36873,	0.29624,	0.27855,	0.23789,	0.25290,	0.23261,	0.29689,	0.30881,	0.15195,	-0.00325,	-0.02869,	-0.08301,	-0.11250,	-0.20281,	-0.40603,	-0.62661,	-0.73829,	-0.78993,	-0.94698,	-0.98186,	-0.95152,	-1.06166,	-1.11340,	-1.03601,	-0.95517,	-0.89256,	-0.77108,	-0.63958,	-0.52929,	-0.41652,	-0.28733,	-0.02553,	0.12038,	0.10428,	0.14427,	0.26100,	0.45692,	0.55727,	0.70667,	0.76631,	0.55883,	0.42716,	0.42967,	0.41448,	0.28843,	0.17227,	-0.00907,	-0.21231,	-0.38394,	-0.41009,	-0.36529,	-0.20282,	-0.08303,	-0.17592,	-0.39693,	-0.62575,	-0.88471,	-1.04179,	-1.16786,	-1.30120,	-1.49971,	-1.64969,	-1.84835,	-1.99439,	-2.15338,	-2.38851,	-2.54324,	-2.69290,	-2.90053,	-3.19803,	-3.41172,	-3.46773,	-3.59520,	-3.79211,	-4.05690,	-4.27553,	-4.44062,	-4.47286,	-4.51092,	-4.47885,	-4.42136,	-4.36047,	-4.35589,	-4.25531,	-4.12780,	-4.17412,	-4.12001,	-3.90110,	-3.65958,	-3.42268,	-3.15540
-0.39231,	-0.19555,	-0.06100,	0.01890,	0.11722,	0.11597,	0.10965,	0.21042,	0.17569,	0.00124,	-0.03581,	-0.12459,	-0.19268,	-0.12771,	0.07555,	0.39856,	0.66306,	0.68073,	0.67229,	0.67460,	0.67044,	0.72873,	0.80278,	0.85414,	0.79991,	0.79382,	0.74043,	0.76922,	0.85204,	1.02367,	1.13100,	1.07401,	1.12410,	1.24290,	1.40701,	1.45814,	1.42571,	1.32211,	1.22962,	1.20962,	1.10822,	0.97625,	1.08562,	1.18072,	1.09843,	0.98784,	0.88792,	0.93552,	1.14085,	1.23753,	1.25382,	1.31996,	1.40235,	1.54896,	1.51403,	1.41729,	1.24216,	1.24054,	1.24640,	1.30945,	1.37064,	1.39605,	1.44903,	1.46585,	1.56968,	1.60650,	1.63789,	1.68602,	1.76955,	1.81232,	1.84075,	1.94176,	1.96993,	1.82539,	1.82098,	1.78351,	1.49841,	1.27163,	1.12931,	1.10323,	1.15313,	1.01466,	0.80015,	0.64577,	0.46670,	0.43181,	0.43792,	0.58069,	0.62465,	0.74071,	0.73689,	0.61787,	0.48701,	0.36197,	0.35207,	0.21918,	0.11632,	0.08690,	0.11216,	0.02301,	-0.16104,	-0.37107,	-0.56295,	-0.70595,	-0.93962,	-1.32748,	-1.56255,	-1.71378,	-1.97800,	-2.19161,	-2.44180,	-2.60601,	-2.53228,	-2.51631,	-2.64169,	-2.63957,	-2.61549,	-2.42135,	-2.30112,	-2.12884,	-2.15091,	-2.17496,	-2.16120,	-2.04164,	-1.88355,	-1.82256,	-1.67823,	-1.58708,	-1.54887,	-1.60126,	-1.64098,	-1.69888,	-1.74777,	-1.82848,	-1.89673,	-1.91092,	-2.04168,	-2.30428,	-2.37934,	-2.22297,	-2.15157,	-2.00105,	-1.81061,	-1.63594,	-1.43285,	-1.40269,	-1.45575,	-1.29750,	-1.14862,	-0.85530,	-0.67347,	-0.58637,	-0.67601,	-0.75925,	-0.75422,	-0.76644,	-0.76773,	-0.75800,	-0.62776,	-0.60738,	-0.61656,	-0.53713,	-0.32519,	-0.20394,	-0.21093,	-0.26702,	-0.29062,	-0.12520,	0.14814,	0.24968,	0.28620,	0.41031,	0.43648,	0.42253,	0.33153,	0.26740,	0.37025,	0.43243,	0.32989,	0.29941,	0.07729,	-0.20513,	-0.48213,	-0.60675,	-0.75962,	-0.95922,	-1.01849,	-0.91735,	-0.77285,	-0.68808,	-0.51585,	-0.39513,	-0.29027,	-0.16149,	0.12017,	0.40696,	0.52190,	0.57984,	0.60042,	0.67230,	0.68271,	0.53830,	0.36292,	0.34034,	0.22765,	0.09177,	0.03554,	0.06142,	0.16085,	0.24537,	0.10692,	0.01597,	-0.03460,	0.06315,	0.28372,	0.47994,	0.53404,	0.49237,	0.47189,	0.39775,	0.29200,	0.20047,	0.27188,	0.28731,	0.18069,	0.05852,	0.00932,	-0.04462,	-0.16920,	-0.36558,	-0.63706,	-0.75678,	-0.69114,	-0.77285,	-0.95972,	-0.99126,	-1.03378,	-1.11874,	-1.12961,	-1.07665,	-1.00800,	-0.96304,	-0.93022,	-0.73219,	-0.55455,	-0.49290,	-0.31795,	-0.05674,	0.09900,	0.08046,	0.14291,	0.27612,	0.42762,	0.51838,	0.67869,	0.70414,	0.48008,	0.31829,	0.28738,	0.31246,	0.18999,	0.03494,	-0.13074,	-0.23729,	-0.26229,	-0.36717,	-0.40852,	-0.19384,	-0.05844,	-0.09956,	-0.29913,	-0.61569,	-0.91126,	-1.05401,	-1.20475,	-1.31075,	-1.41373,	-1.58503,	-1.73069,	-1.91563,	-2.16522,	-2.50765,	-2.68207,	-2.80732,	-2.97348,	-3.22648,	-3.41085,	-3.52463,	-3.71880,	-3.96712,	-4.24988,	-4.40854,	-4.53956,	-4.67264,	-4.79548,	-4.78776,	-4.60083,	-4.50836,	-4.47081,	-4.25761,	-4.12148,	-4.17468,	-4.04686,	-3.80185,	-3.52613,	-3.28893,	-3.12221
-0.18917,	-0.08260,	-0.03397,	0.13213,	0.31534,	0.30881,	0.29625,	0.31770,	0.17392,	-0.03156,	-0.06657,	-0.04650,	0.01373,	0.13237,	0.34511,	0.55275,	0.68938,	0.76250,	0.83803,	0.88209,	0.91609,	0.94140,	0.97369,	1.09992,	1.09532,	1.03854,	0.89537,	0.82291,	0.86307,	1.00417,	1.07417,	1.06769,	1.16749,	1.23955,	1.35464,	1.48465,	1.52385,	1.41754,	1.33654,	1.29345,	1.07691,	0.81901,	0.81140,	0.90688,	0.93753,	0.94342,	0.94647,	1.00216,	1.07822,	1.13998,	1.20236,	1.30853,	1.42595,	1.52494,	1.36756,	1.26849,	1.17151,	1.19390,	1.23311,	1.32566,	1.43007,	1.47847,	1.47077,	1.52419,	1.70108,	1.67024,	1.55492,	1.58527,	1.69938,	1.73395,	1.80097,	1.96709,	1.97572,	1.84042,	1.79381,	1.72235,	1.50456,	1.29761,	1.15249,	1.06852,	0.96719,	0.85388,	0.80369,	0.79511,	0.73344,	0.72304,	0.61192,	0.72011,	0.83766,	0.95911,	0.97412,	0.83883,	0.66498,	0.54223,	0.48809,	0.36642,	0.31140,	0.21564,	0.06843,	-0.04343,	-0.22193,	-0.56431,	-0.85739,	-1.02649,	-1.30638,	-1.63148,	-1.83225,	-1.93987,	-2.10916,	-2.32420,	-2.53754,	-2.68982,	-2.74523,	-2.74416,	-2.81489,	-2.78797,	-2.71755,	-2.51375,	-2.46549,	-2.26576,	-2.15127,	-2.13482,	-2.10220,	-1.94730,	-1.77174,	-1.70954,	-1.66862,	-1.64697,	-1.58912,	-1.66397,	-1.82550,	-1.85690,	-1.81049,	-1.90367,	-2.03268,	-2.11917,	-2.36590,	-2.65342,	-2.75671,	-2.59765,	-2.40677,	-2.18191,	-1.87065,	-1.60741,	-1.50704,	-1.52285,	-1.57835,	-1.42648,	-1.22941,	-0.90667,	-0.77563,	-0.70670,	-0.71552,	-0.74208,	-0.68689,	-0.68991,	-0.72507,	-0.73316,	-0.69168,	-0.70380,	-0.68362,	-0.67247,	-0.63136,	-0.51681,	-0.37560,	-0.33667,	-0.34402,	-0.18927,	-0.07454,	-0.10980,	-0.12635,	0.02282,	0.21177,	0.31929,	0.32060,	0.29940,	0.29093,	0.29207,	0.21844,	0.21312,	0.02612,	-0.25810,	-0.61315,	-0.74353,	-0.77874,	-0.92518,	-0.97841,	-0.90089,	-0.79859,	-0.71860,	-0.60101,	-0.49125,	-0.31143,	-0.16666,	-0.05893,	0.11618,	0.30551,	0.43564,	0.49338,	0.62562,	0.62251,	0.48131,	0.37646,	0.40930,	0.37699,	0.24177,	0.11542,	0.08940,	0.08975,	0.13916,	0.10698,	0.12151,	0.15748,	0.34156,	0.55009,	0.68606,	0.77443,	0.74892,	0.70841,	0.62952,	0.46827,	0.31066,	0.30442,	0.27878,	0.26808,	0.23935,	0.08858,	-0.07861,	-0.23744,	-0.48098,	-0.77247,	-0.84985,	-0.78627,	-0.89368,	-1.07004,	-1.07734,	-1.02008,	-1.02326,	-1.01710,	-0.95996,	-0.97293,	-1.04884,	-1.00221,	-0.72183,	-0.46927,	-0.35390,	-0.21945,	-0.05641,	0.12945,	0.18489,	0.28302,	0.45938,	0.60073,	0.65892,	0.70719,	0.58481,	0.36725,	0.24756,	0.12229,	0.04756,	-0.01772,	-0.08213,	-0.16812,	-0.18824,	-0.21568,	-0.41721,	-0.54332,	-0.36926,	-0.15844,	-0.06367,	-0.18571,	-0.47524,	-0.82238,	-1.05072,	-1.15304,	-1.19921,	-1.28148,	-1.42940,	-1.61172,	-1.88041,	-2.14521,	-2.48970,	-2.70204,	-2.82668,	-2.96369,	-3.17532,	-3.37276,	-3.58195,	-3.83316,	-4.08660,	-4.43013,	-4.68676,	-4.77309,	-4.85316,	-5.00870,	-5.01074,	-4.83693,	-4.80126,	-4.73040,	-4.44067,	-4.16382,	-4.05336,	-3.85967,	-3.55385,	-3.30046,	-3.23536,	-3.13969
-0.19428,	-0.08901,	-0.03547,	0.19357,	0.39304,	0.46046,	0.44521,	0.34460,	0.27846,	0.18504,	0.15222,	0.13999,	0.17982,	0.36281,	0.55228,	0.63132,	0.76410,	0.97253,	1.07107,	0.99753,	1.04858,	1.13186,	1.15102,	1.20129,	1.18228,	1.09463,	0.96770,	0.81406,	0.77414,	0.80181,	0.94323,	0.99579,	1.04003,	1.14944,	1.31696,	1.51879,	1.58566,	1.49246,	1.38407,	1.22573,	1.08909,	0.88182,	0.79576,	0.77690,	0.76109,	0.84010,	0.93406,	1.00203,	1.06442,	1.09833,	1.12577,	1.13071,	1.30172,	1.44583,	1.28888,	1.11674,	1.08685,	1.12233,	1.22035,	1.27341,	1.40010,	1.44390,	1.52716,	1.62526,	1.72084,	1.67960,	1.54605,	1.52575,	1.60509,	1.66183,	1.82923,	1.92540,	2.01123,	1.96920,	1.85907,	1.65221,	1.41193,	1.29448,	1.19703,	0.99212,	0.82696,	0.76891,	0.81829,	0.77508,	0.80636,	0.88829,	0.85186,	0.82532,	0.89494,	0.91885,	0.98362,	0.83758,	0.67569,	0.52664,	0.56213,	0.51433,	0.37364,	0.19342,	-0.05481,	-0.21009,	-0.40299,	-0.79053,	-1.03409,	-1.32141,	-1.54046,	-1.74165,	-1.89322,	-2.01154,	-2.22149,	-2.45605,	-2.60176,	-2.77391,	-2.83331,	-2.79553,	-2.81514,	-2.89955,	-2.81685,	-2.60896,	-2.53007,	-2.46140,	-2.32257,	-2.28995,	-2.15758,	-1.98310,	-1.75015,	-1.71377,	-1.66878,	-1.67101,	-1.73569,	-1.81699,	-1.93267,	-1.95255,	-1.89880,	-2.02786,	-2.12578,	-2.38158,	-2.59904,	-2.74984,	-2.84587,	-2.82123,	-2.71737,	-2.46937,	-2.04306,	-1.77423,	-1.69007,	-1.66232,	-1.62738,	-1.61167,	-1.47611,	-1.17098,	-0.94654,	-0.92790,	-0.90996,	-0.90898,	-0.74492,	-0.73826,	-0.76398,	-0.87379,	-0.90130,	-0.86439,	-0.90407,	-0.91157,	-0.84787,	-0.70797,	-0.49278,	-0.44775,	-0.33656,	-0.26733,	-0.26230,	-0.33702,	-0.37409,	-0.27629,	-0.08232,	0.10639,	0.24550,	0.24605,	0.20695,	0.18813,	0.14267,	-0.01647,	-0.26008,	-0.48553,	-0.71547,	-0.85524,	-0.83865,	-0.94270,	-0.93391,	-0.89619,	-0.79481,	-0.72335,	-0.59765,	-0.43370,	-0.33954,	-0.26555,	-0.24182,	-0.15001,	0.10563,	0.27942,	0.45235,	0.51745,	0.48853,	0.48501,	0.48684,	0.49016,	0.38804,	0.24731,	0.17760,	0.08570,	-0.01181,	0.02935,	0.14484,	0.18547,	0.22175,	0.50358,	0.82380,	0.90873,	0.93209,	0.82446,	0.73515,	0.65704,	0.50903,	0.36703,	0.35081,	0.40086,	0.35738,	0.27213,	0.12966,	-0.05636,	-0.26363,	-0.62278,	-0.85454,	-0.91594,	-0.86421,	-0.82358,	-0.90044,	-0.91186,	-0.88768,	-0.91343,	-0.88506,	-0.89182,	-0.98496,	-1.06631,	-0.95831,	-0.70219,	-0.50396,	-0.31219,	-0.11877,	-0.02570,	0.11158,	0.23497,	0.40270,	0.61026,	0.69552,	0.70809,	0.60561,	0.46846,	0.25710,	0.09726,	-0.04289,	-0.16689,	-0.19436,	-0.23070,	-0.22134,	-0.19533,	-0.29924,	-0.38824,	-0.46160,	-0.39349,	-0.30271,	-0.23821,	-0.24077,	-0.45306,	-0.81444,	-1.00164,	-1.01140,	-1.05127,	-1.25234,	-1.42893,	-1.62117,	-1.89269,	-2.22211,	-2.52461,	-2.74384,	-2.83671,	-3.01186,	-3.20935,	-3.43941,	-3.58891,	-3.90764,	-4.32173,	-4.65857,	-4.88006,	-4.90853,	-4.98507,	-5.15332,	-5.13421,	-5.08062,	-4.98275,	-4.84467,	-4.57663,	-4.30114,	-4.14223,	-3.85362,	-3.46764,	-3.24549,	-3.20697,	-3.13638
-0.10657,	0.01823,	0.09538,	0.24638,	0.33872,	0.37980,	0.35537,	0.25862,	0.27095,	0.29291,	0.32573,	0.35372,	0.38264,	0.47816,	0.56921,	0.69129,	0.99361,	1.26268,	1.34964,	1.23282,	1.24919,	1.30517,	1.23185,	1.21137,	1.17631,	1.05716,	0.96213,	0.84262,	0.77097,	0.67677,	0.77153,	0.92125,	1.06194,	1.17662,	1.32222,	1.49226,	1.54221,	1.45421,	1.28913,	1.12269,	1.04198,	0.88342,	0.79420,	0.75493,	0.72701,	0.68158,	0.68632,	0.84432,	1.09180,	1.13202,	1.07220,	1.03891,	1.20188,	1.32579,	1.13480,	1.00257,	1.08485,	1.13105,	1.18422,	1.21833,	1.39801,	1.46887,	1.55933,	1.64473,	1.72797,	1.67120,	1.55154,	1.45487,	1.44058,	1.50462,	1.66570,	1.73283,	1.81018,	1.79887,	1.68943,	1.51457,	1.43358,	1.38025,	1.23113,	1.00596,	0.94788,	0.90792,	0.87828,	0.79515,	0.84920,	0.98414,	1.00498,	0.95941,	0.97600,	0.86412,	0.83525,	0.71232,	0.62115,	0.43043,	0.39964,	0.38254,	0.33792,	0.13758,	-0.15907,	-0.37613,	-0.65709,	-1.03224,	-1.29240,	-1.58728,	-1.78422,	-1.98891,	-2.10278,	-2.14663,	-2.19896,	-2.39535,	-2.62101,	-2.78386,	-2.70492,	-2.65395,	-2.75652,	-2.88418,	-2.81666,	-2.66788,	-2.69100,	-2.71690,	-2.55002,	-2.47980,	-2.35733,	-2.20678,	-1.93936,	-1.88935,	-1.87463,	-1.91235,	-1.90890,	-1.94095,	-1.98442,	-2.03972,	-2.11994,	-2.25991,	-2.39726,	-2.64599,	-2.74080,	-2.78610,	-2.84904,	-2.90159,	-2.78518,	-2.56356,	-2.29172,	-2.08227,	-1.86582,	-1.73287,	-1.65702,	-1.68225,	-1.62994,	-1.42445,	-1.25505,	-1.22387,	-1.13905,	-1.15071,	-1.05997,	-1.04947,	-0.98421,	-1.09817,	-1.19546,	-1.15935,	-1.09891,	-1.03028,	-0.89859,	-0.73441,	-0.61107,	-0.62534,	-0.54360,	-0.48579,	-0.44934,	-0.52217,	-0.57306,	-0.49762,	-0.22411,	0.01389,	0.08771,	0.09332,	0.18602,	0.19319,	0.03667,	-0.25432,	-0.52177,	-0.69106,	-0.89008,	-1.05456,	-1.00378,	-1.04490,	-1.04524,	-1.03970,	-0.86247,	-0.73876,	-0.62704,	-0.53062,	-0.45020,	-0.37213,	-0.37386,	-0.28025,	-0.02368,	0.19597,	0.37747,	0.38777,	0.38998,	0.44658,	0.46415,	0.43927,	0.39538,	0.35381,	0.28723,	0.14220,	0.08003,	0.14794,	0.25700,	0.31194,	0.36357,	0.60466,	0.83803,	0.87058,	0.91054,	0.78154,	0.60276,	0.48927,	0.42444,	0.38486,	0.37836,	0.41464,	0.35796,	0.24531,	0.11938,	-0.02303,	-0.24228,	-0.62269,	-0.85206,	-0.91727,	-0.82175,	-0.70462,	-0.72303,	-0.69583,	-0.60799,	-0.62093,	-0.72866,	-0.88810,	-0.93979,	-0.91063,	-0.85659,	-0.75076,	-0.63502,	-0.43344,	-0.26707,	-0.23498,	-0.04768,	0.17751,	0.37253,	0.50708,	0.55718,	0.58461,	0.40657,	0.26441,	0.16573,	0.12281,	0.01517,	-0.12245,	-0.17038,	-0.23728,	-0.26282,	-0.29959,	-0.39909,	-0.37510,	-0.36454,	-0.35319,	-0.33356,	-0.28746,	-0.31391,	-0.53727,	-0.81550,	-0.90634,	-0.96488,	-1.06836,	-1.29353,	-1.51023,	-1.76527,	-2.08086,	-2.37367,	-2.57736,	-2.79798,	-2.94695,	-3.17387,	-3.36993,	-3.60930,	-3.73892,	-3.98872,	-4.32413,	-4.62326,	-4.79647,	-4.83934,	-4.99327,	-5.20885,	-5.25034,	-5.23178,	-5.13345,	-5.01790,	-4.79253,	-4.47448,	-4.18923,	-3.91960,	-3.67063,	-3.45491,	-3.27323,	-3.23016
-0.00785,	0.13972,	0.16144,	0.22134,	0.30977,	0.32163,	0.27050,	0.24229,	0.27961,	0.42953,	0.50916,	0.45485,	0.48762,	0.55124,	0.67784,	0.84936,	1.13468,	1.41311,	1.48396,	1.51492,	1.51443,	1.41194,	1.36315,	1.34274,	1.22604,	1.11611,	1.04647,	0.95384,	0.83870,	0.80132,	0.87669,	0.96201,	1.13856,	1.23192,	1.23054,	1.34155,	1.50205,	1.51995,	1.34612,	1.24762,	1.12771,	0.97469,	0.85659,	0.69345,	0.62588,	0.51102,	0.50619,	0.71686,	0.95726,	1.07902,	0.96478,	1.01491,	1.15191,	1.10096,	0.95367,	0.94873,	1.03270,	1.14182,	1.18748,	1.25823,	1.44158,	1.62881,	1.73192,	1.64447,	1.60271,	1.53198,	1.34572,	1.20598,	1.23807,	1.35238,	1.40727,	1.49328,	1.51204,	1.54694,	1.51774,	1.34017,	1.34434,	1.37098,	1.29437,	1.18676,	1.08808,	1.08467,	0.96937,	0.95954,	1.06717,	1.08136,	1.12258,	1.16306,	1.06036,	0.90613,	0.80608,	0.70185,	0.56021,	0.36808,	0.28045,	0.15268,	0.09642,	-0.02183,	-0.35185,	-0.60666,	-0.86866,	-1.18577,	-1.55443,	-1.78049,	-1.99039,	-2.18229,	-2.21401,	-2.27584,	-2.24266,	-2.30165,	-2.50559,	-2.60103,	-2.62299,	-2.59372,	-2.79704,	-2.87947,	-2.75706,	-2.77962,	-2.90447,	-2.84342,	-2.71591,	-2.59495,	-2.49750,	-2.37579,	-2.21953,	-2.11699,	-2.03159,	-2.14824,	-2.18848,	-2.15905,	-2.23571,	-2.33075,	-2.40119,	-2.40742,	-2.58489,	-2.71772,	-2.75315,	-2.76197,	-2.72347,	-2.84088,	-2.80524,	-2.58835,	-2.40222,	-2.16085,	-1.99665,	-1.82149,	-1.76505,	-1.74150,	-1.61154,	-1.56115,	-1.50991,	-1.35509,	-1.30574,	-1.36669,	-1.38063,	-1.34534,	-1.27391,	-1.27684,	-1.23987,	-1.24874,	-1.25987,	-1.16743,	-1.07960,	-0.92879,	-0.80790,	-0.72797,	-0.72628,	-0.64927,	-0.55573,	-0.58733,	-0.56682,	-0.56705,	-0.40328,	-0.15026,	-0.10775,	-0.01984,	0.05469,	0.04011,	-0.20052,	-0.48590,	-0.58883,	-0.78547,	-1.06667,	-1.15440,	-1.16716,	-1.19682,	-1.19061,	-1.15379,	-0.99167,	-0.84766,	-0.65902,	-0.65802,	-0.69759,	-0.58435,	-0.60108,	-0.51222,	-0.23774,	0.11848,	0.29249,	0.32135,	0.36909,	0.42809,	0.53009,	0.48889,	0.39815,	0.46315,	0.44626,	0.39183,	0.32868,	0.35512,	0.42744,	0.48324,	0.64489,	0.71437,	0.68386,	0.76801,	0.82313,	0.70793,	0.54502,	0.43906,	0.35076,	0.29314,	0.37038,	0.36575,	0.17993,	0.06069,	-0.06864,	-0.21248,	-0.33404,	-0.49383,	-0.68405,	-0.77095,	-0.65565,	-0.56377,	-0.49318,	-0.45360,	-0.44982,	-0.45299,	-0.61525,	-0.74779,	-0.76638,	-0.78184,	-0.79825,	-0.86153,	-0.73365,	-0.59736,	-0.59358,	-0.49027,	-0.24381,	-0.03039,	0.19944,	0.31810,	0.35241,	0.36725,	0.30234,	0.19615,	0.05136,	0.06805,	0.02858,	-0.11482,	-0.13813,	-0.07875,	-0.08846,	-0.20720,	-0.26617,	-0.24355,	-0.15188,	-0.15943,	-0.28533,	-0.26521,	-0.29707,	-0.45262,	-0.68194,	-0.90284,	-1.03516,	-1.20880,	-1.29830,	-1.47380,	-1.85875,	-2.13302,	-2.37815,	-2.66253,	-2.86922,	-3.03470,	-3.27467,	-3.52338,	-3.67013,	-3.75625,	-3.99749,	-4.24324,	-4.48027,	-4.70493,	-4.79600,	-4.90654,	-5.10167,	-5.25943,	-5.22724,	-5.19896,	-5.07595,	-4.82876,	-4.57650,	-4.26800,	-4.01449,	-3.84467,	-3.63723,	-3.52028,	-3.45320
0.08528,	0.29695,	0.34264,	0.26946,	0.22368,	0.29425,	0.34511,	0.38238,	0.45255,	0.55816,	0.57088,	0.51191,	0.56956,	0.59605,	0.70131,	0.87124,	1.10931,	1.42176,	1.59452,	1.63412,	1.56300,	1.50020,	1.57565,	1.56874,	1.43781,	1.33730,	1.26348,	1.14605,	1.01429,	0.96959,	0.98293,	1.07389,	1.28193,	1.37421,	1.34758,	1.37175,	1.47375,	1.62743,	1.61952,	1.56280,	1.41378,	1.12487,	0.82510,	0.60786,	0.53248,	0.38600,	0.34302,	0.52144,	0.73181,	0.94221,	0.94570,	0.95631,	0.93584,	0.87498,	0.89471,	0.95517,	1.03958,	1.17338,	1.25090,	1.35449,	1.55711,	1.75239,	1.74774,	1.56284,	1.44094,	1.35460,	1.21054,	1.04487,	0.97968,	1.11525,	1.22413,	1.30026,	1.30836,	1.31887,	1.22698,	1.09868,	1.17425,	1.22638,	1.18810,	1.17704,	1.09217,	1.14216,	1.16137,	1.17303,	1.18383,	1.18154,	1.31929,	1.34772,	1.19307,	1.03516,	0.93896,	0.81558,	0.61280,	0.35390,	0.09483,	-0.10044,	-0.14353,	-0.19658,	-0.43326,	-0.70451,	-1.08286,	-1.42080,	-1.72787,	-1.91489,	-2.09217,	-2.25539,	-2.35079,	-2.40529,	-2.28653,	-2.27845,	-2.50466,	-2.61667,	-2.74594,	-2.74896,	-2.83351,	-2.90287,	-2.91844,	-3.00136,	-3.01154,	-2.89149,	-2.75472,	-2.60813,	-2.50313,	-2.43758,	-2.38335,	-2.28246,	-2.26122,	-2.38479,	-2.40423,	-2.36708,	-2.41689,	-2.51890,	-2.66499,	-2.61207,	-2.62613,	-2.66425,	-2.67315,	-2.70241,	-2.75173,	-2.87966,	-2.84992,	-2.67244,	-2.56226,	-2.32718,	-2.20197,	-2.03035,	-1.87388,	-1.81702,	-1.76795,	-1.74438,	-1.56798,	-1.35391,	-1.33461,	-1.43577,	-1.48401,	-1.44386,	-1.37146,	-1.28444,	-1.24369,	-1.27145,	-1.29306,	-1.26388,	-1.19640,	-1.04855,	-1.01048,	-0.88788,	-0.76502,	-0.65006,	-0.51174,	-0.50720,	-0.58828,	-0.67707,	-0.58959,	-0.38574,	-0.39545,	-0.31091,	-0.28681,	-0.32859,	-0.45521,	-0.63584,	-0.74034,	-0.93454,	-1.08739,	-1.13895,	-1.22506,	-1.26083,	-1.22030,	-1.15394,	-1.03377,	-0.92346,	-0.83903,	-0.91715,	-0.95144,	-0.81839,	-0.78220,	-0.66122,	-0.48876,	-0.16068,	0.13956,	0.26973,	0.35950,	0.43524,	0.49143,	0.45081,	0.42207,	0.54984,	0.52441,	0.49651,	0.44296,	0.46987,	0.63825,	0.75199,	0.81804,	0.72947,	0.68340,	0.81712,	0.86071,	0.78679,	0.67807,	0.57837,	0.41848,	0.25510,	0.21453,	0.11917,	-0.06176,	-0.13098,	-0.20382,	-0.28670,	-0.38301,	-0.46626,	-0.51295,	-0.53368,	-0.44606,	-0.37487,	-0.35994,	-0.39792,	-0.43435,	-0.45183,	-0.65617,	-0.77389,	-0.76675,	-0.80821,	-0.79093,	-0.87236,	-0.87945,	-0.85827,	-0.80224,	-0.57737,	-0.34023,	-0.15525,	0.08080,	0.22325,	0.26363,	0.27612,	0.21264,	0.06333,	-0.07791,	-0.02774,	0.01350,	-0.03203,	-0.07028,	-0.02709,	0.07079,	0.04769,	0.01079,	0.01128,	0.00813,	-0.11897,	-0.27609,	-0.24367,	-0.29914,	-0.46566,	-0.70095,	-1.00239,	-1.12117,	-1.19873,	-1.28237,	-1.48315,	-1.79030,	-1.93688,	-2.21906,	-2.60996,	-2.84633,	-2.99562,	-3.21417,	-3.44731,	-3.59836,	-3.75523,	-3.93800,	-4.09280,	-4.28764,	-4.50165,	-4.69305,	-4.90475,	-5.04337,	-5.14092,	-5.13951,	-5.15666,	-5.09950,	-4.94492,	-4.69597,	-4.37171,	-4.16807,	-4.11153,	-3.95961,	-3.87547,	-3.73021
0.16362,	0.32051,	0.43575,	0.36637,	0.23311,	0.28211,	0.37748,	0.54666,	0.61038,	0.61894,	0.65033,	0.61625,	0.63343,	0.63231,	0.75678,	0.98144,	1.16130,	1.36028,	1.54288,	1.50239,	1.51122,	1.59607,	1.59748,	1.57469,	1.54020,	1.43908,	1.37621,	1.17819,	1.06442,	1.12377,	1.16360,	1.28428,	1.47302,	1.50396,	1.54533,	1.61197,	1.65602,	1.78926,	1.78485,	1.76631,	1.60252,	1.23025,	0.90524,	0.66319,	0.48441,	0.33402,	0.35148,	0.53287,	0.71960,	0.83234,	0.86980,	0.75992,	0.68936,	0.76757,	0.82192,	0.87436,	0.98660,	1.04690,	1.20302,	1.29801,	1.47803,	1.72801,	1.70864,	1.49460,	1.31391,	1.14503,	1.06088,	1.01920,	0.90873,	0.95818,	0.95102,	1.00276,	1.02329,	0.98146,	0.95952,	0.93597,	0.98219,	0.99040,	1.01790,	1.11356,	1.13114,	1.11410,	1.19078,	1.15812,	1.19192,	1.32620,	1.38242,	1.25545,	1.16247,	1.00891,	0.98232,	0.80530,	0.51522,	0.29835,	0.03328,	-0.18404,	-0.25035,	-0.38795,	-0.61867,	-0.82575,	-1.20217,	-1.55004,	-1.93306,	-2.14350,	-2.29505,	-2.42029,	-2.41101,	-2.38158,	-2.27696,	-2.33088,	-2.54821,	-2.68302,	-2.83451,	-2.94678,	-2.92886,	-3.02565,	-3.14617,	-3.14537,	-3.10407,	-3.08557,	-2.89760,	-2.76158,	-2.59608,	-2.57215,	-2.61505,	-2.44209,	-2.35090,	-2.39315,	-2.38683,	-2.46136,	-2.61234,	-2.66677,	-2.77492,	-2.70567,	-2.71274,	-2.71347,	-2.71574,	-2.84198,	-2.90842,	-2.96091,	-2.95015,	-2.88513,	-2.80056,	-2.55045,	-2.32583,	-2.24640,	-2.11603,	-2.10852,	-2.08568,	-1.86744,	-1.58300,	-1.50839,	-1.47266,	-1.55778,	-1.52866,	-1.46714,	-1.45560,	-1.29321,	-1.19346,	-1.20808,	-1.16692,	-1.21688,	-1.28346,	-1.14517,	-1.10418,	-0.91123,	-0.77130,	-0.66756,	-0.50311,	-0.55404,	-0.66748,	-0.74993,	-0.75564,	-0.66254,	-0.63933,	-0.54216,	-0.50583,	-0.65882,	-0.74291,	-0.89047,	-1.04063,	-1.06333,	-1.06460,	-1.26863,	-1.38595,	-1.40131,	-1.28180,	-1.13389,	-1.12017,	-1.04890,	-1.02777,	-1.14554,	-1.10380,	-1.00303,	-1.01960,	-0.84317,	-0.69129,	-0.42767,	-0.16768,	-0.01601,	0.13596,	0.18321,	0.23717,	0.34112,	0.43800,	0.54480,	0.50272,	0.50908,	0.58466,	0.61785,	0.77875,	0.86380,	0.78934,	0.79666,	0.88502,	0.86831,	0.85860,	0.80717,	0.71129,	0.63952,	0.41120,	0.20789,	0.10022,	-0.09297,	-0.21805,	-0.21636,	-0.30772,	-0.31493,	-0.33261,	-0.38732,	-0.42283,	-0.48503,	-0.42342,	-0.37024,	-0.34602,	-0.33477,	-0.41921,	-0.55873,	-0.77729,	-0.86464,	-0.78049,	-0.82493,	-0.84667,	-0.95820,	-1.11636,	-1.01256,	-0.75396,	-0.58156,	-0.43551,	-0.26891,	-0.10755,	0.09365,	0.13404,	0.17213,	0.18588,	0.02853,	-0.09507,	-0.07734,	-0.10395,	-0.06837,	-0.03335,	0.00073,	0.09903,	0.09026,	0.11707,	0.07341,	-0.06204,	-0.17135,	-0.26334,	-0.25919,	-0.35246,	-0.51955,	-0.70934,	-0.96452,	-1.10419,	-1.14110,	-1.32242,	-1.45129,	-1.57747,	-1.78436,	-2.12641,	-2.50284,	-2.83583,	-2.97240,	-3.18349,	-3.32252,	-3.38589,	-3.56564,	-3.71096,	-3.85287,	-4.13330,	-4.39229,	-4.60944,	-4.83585,	-4.94306,	-5.09563,	-5.16286,	-5.23593,	-5.25460,	-5.08726,	-4.80593,	-4.52912,	-4.38454,	-4.36235,	-4.20609,	-4.05036,	-3.88655
0.08652,	0.24528,	0.43652,	0.43125,	0.34812,	0.45382,	0.62788,	0.87828,	0.92822,	0.88818,	0.90601,	0.87183,	0.91590,	0.92925,	1.05353,	1.22222,	1.28099,	1.38785,	1.50750,	1.47681,	1.58185,	1.65962,	1.56244,	1.54089,	1.56744,	1.47410,	1.37607,	1.18979,	1.14516,	1.26618,	1.33746,	1.39449,	1.48978,	1.56044,	1.72037,	1.82604,	1.84636,	1.92947,	1.90910,	1.88910,	1.75967,	1.48899,	1.22227,	0.92179,	0.64778,	0.47752,	0.51703,	0.64136,	0.69312,	0.68474,	0.66008,	0.53621,	0.53516,	0.66531,	0.72061,	0.82792,	0.95380,	0.97026,	1.11550,	1.20883,	1.36329,	1.59332,	1.60345,	1.38637,	1.15399,	1.01457,	1.03032,	1.05997,	0.92667,	0.90682,	0.84542,	0.88793,	0.94939,	0.91633,	0.93605,	0.92524,	0.93659,	0.94318,	1.01622,	1.14999,	1.16302,	1.12849,	1.16390,	1.12785,	1.27290,	1.42345,	1.34307,	1.15239,	1.08153,	0.93672,	0.86210,	0.64011,	0.35050,	0.16013,	-0.04553,	-0.29825,	-0.50600,	-0.72176,	-0.93597,	-1.12013,	-1.40106,	-1.61359,	-1.91997,	-2.15072,	-2.31941,	-2.41697,	-2.33357,	-2.28508,	-2.24430,	-2.37886,	-2.60817,	-2.77841,	-3.00731,	-3.11903,	-3.05387,	-3.11829,	-3.18083,	-3.17257,	-3.19312,	-3.24086,	-3.10426,	-2.99152,	-2.83914,	-2.78012,	-2.73613,	-2.50007,	-2.31779,	-2.30763,	-2.41147,	-2.55592,	-2.71378,	-2.72191,	-2.72844,	-2.62449,	-2.58492,	-2.57980,	-2.61040,	-2.78683,	-2.87353,	-2.93827,	-2.97412,	-2.98166,	-2.94379,	-2.72440,	-2.52983,	-2.48487,	-2.40182,	-2.40324,	-2.25774,	-1.93314,	-1.70803,	-1.71159,	-1.67868,	-1.71076,	-1.64625,	-1.57829,	-1.54863,	-1.39951,	-1.28281,	-1.28077,	-1.23790,	-1.21810,	-1.24483,	-1.14857,	-1.12448,	-0.91095,	-0.72826,	-0.62956,	-0.50872,	-0.62440,	-0.74257,	-0.84175,	-0.89929,	-0.81335,	-0.73020,	-0.61455,	-0.65338,	-0.87034,	-0.95024,	-1.12040,	-1.23125,	-1.15409,	-1.14458,	-1.35787,	-1.43107,	-1.40928,	-1.28152,	-1.13288,	-1.15983,	-1.14226,	-1.16993,	-1.26572,	-1.23147,	-1.16403,	-1.15047,	-0.97103,	-0.83998,	-0.62033,	-0.38183,	-0.21955,	-0.04203,	0.00230,	0.06996,	0.24760,	0.42942,	0.58227,	0.58738,	0.64229,	0.74013,	0.76245,	0.87134,	0.88047,	0.81030,	0.92132,	1.01175,	0.89388,	0.82763,	0.72845,	0.56562,	0.45707,	0.30828,	0.20111,	0.08238,	-0.17417,	-0.37997,	-0.39523,	-0.42479,	-0.37378,	-0.36811,	-0.41600,	-0.41336,	-0.46062,	-0.38616,	-0.27992,	-0.18905,	-0.15251,	-0.30459,	-0.51108,	-0.71929,	-0.83540,	-0.82275,	-0.91014,	-0.92911,	-1.02482,	-1.12189,	-0.90578,	-0.61729,	-0.52103,	-0.45493,	-0.33625,	-0.25013,	-0.03406,	0.09474,	0.19325,	0.24339,	0.09297,	-0.09372,	-0.16364,	-0.19082,	-0.09119,	-0.00275,	0.04956,	0.14421,	0.16668,	0.23302,	0.18144,	0.00462,	-0.10290,	-0.18867,	-0.20551,	-0.33172,	-0.51830,	-0.72483,	-0.95942,	-1.05603,	-1.10476,	-1.29228,	-1.35606,	-1.48796,	-1.77707,	-2.04928,	-2.32198,	-2.69564,	-2.91956,	-3.13069,	-3.18534,	-3.21140,	-3.38655,	-3.60661,	-3.86573,	-4.15995,	-4.40532,	-4.60801,	-4.76473,	-4.81130,	-4.94264,	-5.05798,	-5.15877,	-5.19759,	-5.08709,	-4.88611,	-4.64903,	-4.49273,	-4.41948,	-4.24114,	-4.09352,	-3.88289
0.04562,	0.27677,	0.45816,	0.49778,	0.47658,	0.59524,	0.82528,	1.05413,	1.11794,	1.09513,	1.02258,	0.99314,	1.10995,	1.15780,	1.28979,	1.40752,	1.40536,	1.46791,	1.54728,	1.57333,	1.66511,	1.63780,	1.59697,	1.58640,	1.62741,	1.61422,	1.59168,	1.52549,	1.42233,	1.38832,	1.48882,	1.53605,	1.53815,	1.67200,	1.80329,	1.88191,	1.89979,	1.91306,	1.89612,	1.84188,	1.76151,	1.63376,	1.35524,	1.01980,	0.73919,	0.52309,	0.55353,	0.63414,	0.61085,	0.53373,	0.44471,	0.34714,	0.37343,	0.42829,	0.56649,	0.74754,	0.89647,	0.98719,	1.16719,	1.31711,	1.35896,	1.38952,	1.41829,	1.28225,	1.00854,	0.97347,	1.01809,	1.01036,	0.86808,	0.77743,	0.72525,	0.76788,	0.86236,	0.88386,	0.82263,	0.76404,	0.81641,	0.87487,	1.04008,	1.21696,	1.24755,	1.22246,	1.20209,	1.16084,	1.32492,	1.33728,	1.26799,	1.11920,	1.00816,	0.89615,	0.81750,	0.64611,	0.32469,	-0.04837,	-0.30277,	-0.51338,	-0.84122,	-1.02206,	-1.20893,	-1.42229,	-1.60822,	-1.73579,	-1.92314,	-2.13477,	-2.33272,	-2.42419,	-2.42619,	-2.43179,	-2.38477,	-2.53822,	-2.74446,	-2.93131,	-3.16713,	-3.24867,	-3.19042,	-3.21712,	-3.18913,	-3.27621,	-3.30562,	-3.32323,	-3.27561,	-3.14514,	-2.95898,	-2.79391,	-2.68352,	-2.56092,	-2.40413,	-2.29420,	-2.49366,	-2.59772,	-2.68668,	-2.68740,	-2.59738,	-2.50548,	-2.43545,	-2.42334,	-2.48091,	-2.61501,	-2.77286,	-2.93859,	-2.99894,	-3.04698,	-3.03941,	-2.88287,	-2.73474,	-2.69180,	-2.60892,	-2.58081,	-2.33569,	-2.09807,	-1.92568,	-1.85712,	-1.84378,	-1.84165,	-1.75101,	-1.62725,	-1.55979,	-1.56014,	-1.53814,	-1.42326,	-1.39221,	-1.25565,	-1.16178,	-1.13988,	-1.15468,	-1.05308,	-0.90002,	-0.78982,	-0.70544,	-0.77992,	-0.92330,	-1.09193,	-1.11732,	-0.98888,	-0.85789,	-0.72694,	-0.77263,	-0.99107,	-1.09157,	-1.29035,	-1.34161,	-1.32307,	-1.33553,	-1.40054,	-1.43733,	-1.37492,	-1.22723,	-1.08655,	-1.11885,	-1.26794,	-1.42750,	-1.37564,	-1.33739,	-1.27064,	-1.17166,	-1.05482,	-0.92867,	-0.75658,	-0.55446,	-0.37859,	-0.22285,	-0.13080,	-0.08060,	0.02687,	0.26109,	0.51973,	0.65817,	0.79250,	0.89409,	0.88970,	0.92983,	0.87467,	0.84122,	0.85285,	0.81942,	0.76700,	0.68902,	0.58949,	0.44947,	0.36137,	0.31564,	0.16598,	-0.07296,	-0.25182,	-0.51472,	-0.61404,	-0.54896,	-0.50275,	-0.46711,	-0.50126,	-0.49897,	-0.49111,	-0.39837,	-0.21250,	-0.09577,	-0.14825,	-0.32647,	-0.52154,	-0.71187,	-0.84528,	-0.89374,	-1.00553,	-1.02139,	-1.09004,	-1.07825,	-0.88463,	-0.71433,	-0.58569,	-0.55163,	-0.45493,	-0.32121,	-0.02373,	0.23376,	0.26729,	0.19164,	0.13910,	-0.01374,	-0.12861,	-0.04979,	0.05504,	0.16116,	0.22362,	0.25316,	0.28525,	0.33131,	0.31714,	0.18320,	-0.03015,	-0.17994,	-0.21300,	-0.36013,	-0.52696,	-0.74559,	-1.00050,	-1.09932,	-1.15091,	-1.26437,	-1.31830,	-1.55697,	-1.77800,	-1.95499,	-2.14699,	-2.44746,	-2.67117,	-2.86980,	-3.05117,	-3.24246,	-3.36185,	-3.54501,	-3.90075,	-4.12767,	-4.37295,	-4.56799,	-4.67313,	-4.74772,	-4.82462,	-4.93610,	-5.01685,	-5.02693,	-5.07136,	-4.99336,	-4.76374,	-4.59097,	-4.44287,	-4.24840,	-4.11664,	-3.91086
0.16020,	0.31123,	0.38787,	0.46631,	0.51478,	0.65616,	0.89377,	1.08718,	1.13302,	1.20196,	1.19772,	1.19952,	1.35372,	1.32754,	1.36163,	1.47569,	1.50735,	1.58568,	1.69913,	1.71483,	1.75855,	1.76360,	1.81996,	1.82148,	1.87305,	1.83850,	1.77219,	1.76369,	1.65591,	1.59046,	1.65912,	1.65947,	1.65715,	1.69740,	1.67443,	1.73656,	1.75560,	1.76925,	1.76922,	1.69430,	1.61941,	1.63065,	1.50131,	1.18645,	0.91923,	0.61473,	0.50800,	0.56130,	0.54079,	0.45404,	0.39150,	0.26414,	0.23127,	0.29831,	0.51685,	0.71177,	0.86968,	0.95763,	1.05813,	1.24015,	1.25028,	1.21542,	1.25524,	1.16607,	0.98679,	0.95261,	0.87748,	0.84348,	0.69407,	0.58415,	0.53725,	0.60246,	0.70209,	0.76944,	0.78550,	0.70546,	0.77281,	0.82603,	0.93322,	1.16866,	1.30983,	1.33261,	1.36295,	1.28771,	1.33351,	1.27940,	1.26784,	1.14638,	1.03947,	0.90573,	0.67386,	0.47553,	0.13199,	-0.30383,	-0.56581,	-0.78412,	-1.07667,	-1.22920,	-1.49923,	-1.71332,	-1.85667,	-1.92804,	-2.05184,	-2.23987,	-2.45976,	-2.56331,	-2.50420,	-2.53767,	-2.50725,	-2.67011,	-2.96881,	-3.14784,	-3.28270,	-3.31637,	-3.20605,	-3.23124,	-3.26793,	-3.37199,	-3.31687,	-3.28257,	-3.24008,	-3.13824,	-3.07756,	-2.89551,	-2.75609,	-2.65743,	-2.47071,	-2.34769,	-2.50043,	-2.57962,	-2.75720,	-2.72468,	-2.57689,	-2.49040,	-2.43375,	-2.42819,	-2.50344,	-2.61224,	-2.66191,	-2.83205,	-2.90574,	-2.98286,	-3.11579,	-3.02958,	-2.86024,	-2.81082,	-2.66333,	-2.58864,	-2.38529,	-2.20591,	-2.02637,	-1.93833,	-1.91661,	-1.91738,	-1.93979,	-1.84022,	-1.77459,	-1.78242,	-1.72022,	-1.58394,	-1.49466,	-1.28996,	-1.27849,	-1.31985,	-1.37701,	-1.37720,	-1.29432,	-1.19966,	-1.12920,	-1.14327,	-1.12385,	-1.22471,	-1.18812,	-1.02772,	-1.00440,	-0.92503,	-0.92788,	-1.11201,	-1.16087,	-1.31157,	-1.40193,	-1.44000,	-1.39534,	-1.35332,	-1.33332,	-1.25571,	-1.22811,	-1.19556,	-1.29041,	-1.50834,	-1.64678,	-1.50930,	-1.39652,	-1.30766,	-1.31803,	-1.28165,	-1.15777,	-1.01225,	-0.83868,	-0.65049,	-0.49052,	-0.36371,	-0.18883,	-0.04341,	0.21352,	0.52635,	0.65392,	0.81272,	0.98691,	0.99048,	0.98399,	0.89367,	0.77988,	0.67839,	0.63981,	0.65270,	0.61546,	0.58929,	0.41365,	0.24868,	0.18910,	0.01894,	-0.20683,	-0.33977,	-0.57950,	-0.70300,	-0.74372,	-0.78618,	-0.73086,	-0.72666,	-0.70909,	-0.65772,	-0.52501,	-0.30320,	-0.08942,	-0.10740,	-0.30299,	-0.49134,	-0.74515,	-0.91375,	-0.93041,	-1.01860,	-1.01406,	-1.00953,	-0.98616,	-0.86783,	-0.71767,	-0.56705,	-0.55304,	-0.45759,	-0.35397,	-0.09379,	0.18466,	0.18620,	0.11259,	0.13821,	0.05746,	0.00606,	0.06131,	0.10492,	0.24876,	0.33551,	0.34277,	0.35337,	0.37326,	0.35474,	0.32256,	0.18905,	0.01501,	-0.07151,	-0.35142,	-0.61587,	-0.81079,	-1.02819,	-1.11574,	-1.11184,	-1.19857,	-1.25794,	-1.46046,	-1.60335,	-1.74359,	-1.88133,	-2.19340,	-2.53105,	-2.79245,	-3.09766,	-3.35332,	-3.43400,	-3.57919,	-3.87754,	-4.14139,	-4.49005,	-4.65169,	-4.72710,	-4.81077,	-4.87640,	-4.97305,	-5.02672,	-4.94090,	-4.88112,	-4.85067,	-4.68113,	-4.59098,	-4.52031,	-4.30308,	-4.13581,	-3.95135
0.23486,	0.31528,	0.35203,	0.51125,	0.58607,	0.71716,	1.01005,	1.15436,	1.17736,	1.31218,	1.31662,	1.29945,	1.46418,	1.46108,	1.45488,	1.50435,	1.58413,	1.71839,	1.77453,	1.78676,	1.81436,	1.89941,	1.98529,	1.99243,	2.06109,	2.05189,	1.90015,	1.83811,	1.84104,	1.86428,	1.80937,	1.70923,	1.65229,	1.62816,	1.60103,	1.74251,	1.73715,	1.74231,	1.83670,	1.72177,	1.56083,	1.63302,	1.54794,	1.23640,	1.04551,	0.86744,	0.73188,	0.65743,	0.54492,	0.51370,	0.40849,	0.27887,	0.15139,	0.21181,	0.36177,	0.50205,	0.62833,	0.76368,	0.84351,	1.02841,	1.13333,	1.14314,	1.06289,	0.96256,	0.84119,	0.80898,	0.71774,	0.77511,	0.65600,	0.50975,	0.53859,	0.63403,	0.63847,	0.72625,	0.71803,	0.59645,	0.65297,	0.76529,	0.86380,	1.07953,	1.23465,	1.38656,	1.40829,	1.33825,	1.23703,	1.13984,	1.03815,	0.91827,	0.87386,	0.82937,	0.53711,	0.23118,	-0.09529,	-0.42035,	-0.72320,	-0.97478,	-1.26862,	-1.36754,	-1.60558,	-1.74939,	-1.90288,	-2.05343,	-2.12926,	-2.27923,	-2.54351,	-2.56629,	-2.52625,	-2.64743,	-2.69622,	-2.75045,	-2.97094,	-3.13031,	-3.29255,	-3.24792,	-3.20169,	-3.24451,	-3.41888,	-3.49260,	-3.41786,	-3.30237,	-3.20141,	-3.09357,	-3.11782,	-3.02435,	-2.87750,	-2.68291,	-2.54354,	-2.44309,	-2.56496,	-2.62423,	-2.80104,	-2.66546,	-2.48475,	-2.49065,	-2.44749,	-2.40239,	-2.56263,	-2.63710,	-2.66947,	-2.84728,	-2.94114,	-2.92928,	-3.00077,	-2.95241,	-2.89820,	-2.81938,	-2.74568,	-2.63930,	-2.49197,	-2.30252,	-2.18811,	-2.15501,	-2.12483,	-2.04818,	-2.04693,	-2.02151,	-1.99538,	-1.84291,	-1.76560,	-1.70917,	-1.67563,	-1.49884,	-1.53543,	-1.54063,	-1.52745,	-1.59619,	-1.57318,	-1.47367,	-1.50415,	-1.41419,	-1.25721,	-1.28637,	-1.25646,	-1.05275,	-1.01217,	-1.00198,	-1.14000,	-1.25071,	-1.28404,	-1.34787,	-1.46840,	-1.55889,	-1.55400,	-1.50685,	-1.43586,	-1.30894,	-1.29519,	-1.36408,	-1.53964,	-1.66486,	-1.75878,	-1.64382,	-1.55200,	-1.49495,	-1.57594,	-1.50616,	-1.31503,	-1.24528,	-1.11744,	-0.84592,	-0.71731,	-0.53275,	-0.24607,	-0.10455,	0.07759,	0.39470,	0.57091,	0.77928,	0.93699,	1.00758,	0.94670,	0.77840,	0.59661,	0.46991,	0.46689,	0.47886,	0.49655,	0.62186,	0.52548,	0.25133,	0.04105,	-0.08373,	-0.26870,	-0.44272,	-0.62591,	-0.73105,	-0.86693,	-0.95716,	-0.86192,	-0.85278,	-0.82483,	-0.66199,	-0.56298,	-0.37171,	-0.09758,	-0.14986,	-0.42920,	-0.57782,	-0.72219,	-0.78935,	-0.83576,	-0.94345,	-0.95597,	-0.97294,	-0.93490,	-0.88537,	-0.73940,	-0.62728,	-0.60962,	-0.47141,	-0.30929,	-0.12019,	0.03417,	0.07919,	0.07168,	0.07614,	0.02959,	-0.00316,	0.02808,	0.11839,	0.38251,	0.48710,	0.48702,	0.54820,	0.50425,	0.38921,	0.41453,	0.33082,	0.15216,	0.05980,	-0.21955,	-0.51075,	-0.74782,	-0.94185,	-0.96747,	-1.02184,	-1.07440,	-1.12651,	-1.26954,	-1.47398,	-1.65988,	-1.77640,	-2.03597,	-2.44364,	-2.77873,	-3.06357,	-3.30143,	-3.50045,	-3.66775,	-3.91456,	-4.18062,	-4.51868,	-4.60562,	-4.70521,	-4.83438,	-4.86277,	-4.97741,	-5.05471,	-4.82665,	-4.65218,	-4.66844,	-4.62183,	-4.56778,	-4.51166,	-4.33790,	-4.24478,	-4.04064
0.25430,	0.32585,	0.38050,	0.52193,	0.58583,	0.68913,	0.95670,	1.18189,	1.30769,	1.37877,	1.29828,	1.30593,	1.48939,	1.47469,	1.46018,	1.53744,	1.67385,	1.83592,	1.85099,	1.89145,	2.00155,	2.10689,	2.19170,	2.15021,	2.14737,	2.15328,	2.01182,	1.93336,	1.97998,	2.02530,	1.93421,	1.81269,	1.70839,	1.70389,	1.76099,	1.91004,	1.85059,	1.79614,	1.82440,	1.72058,	1.61106,	1.63570,	1.48031,	1.22686,	1.17952,	1.14451,	1.02316,	0.86868,	0.66309,	0.61723,	0.47914,	0.36096,	0.23741,	0.19883,	0.26660,	0.33631,	0.36915,	0.53263,	0.69224,	0.89832,	1.01490,	0.97969,	0.79178,	0.69277,	0.60634,	0.62740,	0.63272,	0.76686,	0.68367,	0.54124,	0.55771,	0.69087,	0.74363,	0.77469,	0.63406,	0.54122,	0.65207,	0.74803,	0.76185,	0.90095,	1.01430,	1.19176,	1.20194,	1.13831,	1.07934,	0.93369,	0.75318,	0.62151,	0.56816,	0.62135,	0.47846,	0.19987,	-0.10389,	-0.38675,	-0.73726,	-0.99232,	-1.29720,	-1.37914,	-1.54569,	-1.68084,	-1.90551,	-2.12120,	-2.25773,	-2.39635,	-2.51910,	-2.45452,	-2.53005,	-2.69651,	-2.72683,	-2.71362,	-2.88640,	-3.02397,	-3.24281,	-3.23618,	-3.23854,	-3.28771,	-3.39586,	-3.44228,	-3.36169,	-3.21776,	-3.17860,	-3.11594,	-3.11278,	-3.04970,	-2.91133,	-2.72048,	-2.66866,	-2.53606,	-2.60032,	-2.62075,	-2.69377,	-2.52316,	-2.40917,	-2.47775,	-2.49983,	-2.42379,	-2.48443,	-2.55113,	-2.74196,	-2.95659,	-2.99066,	-2.91730,	-2.96885,	-2.94600,	-2.96223,	-2.92365,	-2.93127,	-2.83692,	-2.60736,	-2.37135,	-2.25439,	-2.23619,	-2.25882,	-2.15250,	-2.03596,	-1.99446,	-1.98408,	-1.82894,	-1.86274,	-1.87486,	-1.89432,	-1.74435,	-1.72009,	-1.70094,	-1.66650,	-1.69727,	-1.73039,	-1.66080,	-1.61827,	-1.43396,	-1.31921,	-1.33302,	-1.28331,	-1.09857,	-1.09054,	-1.13397,	-1.34628,	-1.44713,	-1.48607,	-1.53216,	-1.60015,	-1.70903,	-1.75665,	-1.71815,	-1.66639,	-1.54929,	-1.45691,	-1.46059,	-1.60423,	-1.69216,	-1.82508,	-1.75219,	-1.70088,	-1.67260,	-1.68735,	-1.54313,	-1.36477,	-1.35224,	-1.32300,	-1.08393,	-0.87404,	-0.61581,	-0.40830,	-0.34723,	-0.17871,	0.10765,	0.23715,	0.44976,	0.61687,	0.75989,	0.73591,	0.55791,	0.44941,	0.41391,	0.45622,	0.49624,	0.51253,	0.63911,	0.60266,	0.33787,	0.06486,	-0.07309,	-0.30476,	-0.51534,	-0.60541,	-0.62808,	-0.73148,	-0.83534,	-0.80753,	-0.82905,	-0.83389,	-0.68670,	-0.57292,	-0.37021,	-0.16872,	-0.29290,	-0.53739,	-0.61052,	-0.70141,	-0.73185,	-0.82186,	-0.98487,	-1.04068,	-1.08442,	-0.97594,	-0.87506,	-0.72790,	-0.57958,	-0.54611,	-0.43415,	-0.22185,	-0.01991,	0.06840,	0.10703,	0.09590,	0.09616,	0.08778,	0.05691,	0.10288,	0.24321,	0.50726,	0.58378,	0.55164,	0.56787,	0.54458,	0.44893,	0.40374,	0.26896,	0.16663,	0.18920,	-0.02850,	-0.32094,	-0.56838,	-0.75470,	-0.77260,	-0.88113,	-0.91517,	-0.92253,	-1.10136,	-1.35199,	-1.59177,	-1.76315,	-1.97934,	-2.32169,	-2.59853,	-2.81612,	-3.08837,	-3.40505,	-3.58759,	-3.80647,	-4.02750,	-4.30773,	-4.44915,	-4.63078,	-4.78374,	-4.84690,	-4.92174,	-4.89209,	-4.65474,	-4.56313,	-4.63035,	-4.64932,	-4.67840,	-4.68717,	-4.56561,	-4.55623,	-4.37269
0.24029,	0.21579,	0.33643,	0.47278,	0.53304,	0.70856,	0.98416,	1.19498,	1.36269,	1.38814,	1.36768,	1.39711,	1.49795,	1.52525,	1.52423,	1.66737,	1.92303,	2.10360,	2.14797,	2.16454,	2.18560,	2.27406,	2.36517,	2.31307,	2.17624,	2.07373,	2.00543,	1.96123,	1.97650,	2.04083,	2.01081,	1.97371,	1.82785,	1.74756,	1.86707,	1.99950,	1.89847,	1.82805,	1.80680,	1.64233,	1.57584,	1.62514,	1.58001,	1.41342,	1.32224,	1.37520,	1.25749,	1.05135,	0.85418,	0.75280,	0.60261,	0.46070,	0.18419,	0.05528,	0.12465,	0.22799,	0.19085,	0.25865,	0.47403,	0.68395,	0.70409,	0.64553,	0.48706,	0.47703,	0.43691,	0.42143,	0.53249,	0.72890,	0.67862,	0.60518,	0.68637,	0.78131,	0.84890,	0.85271,	0.75135,	0.76450,	0.77655,	0.84008,	0.75918,	0.76478,	0.86249,	1.00084,	0.98590,	0.91250,	0.76291,	0.60019,	0.47311,	0.41823,	0.33412,	0.33055,	0.32791,	0.17061,	-0.13110,	-0.39732,	-0.73464,	-0.94606,	-1.22754,	-1.44102,	-1.59361,	-1.71856,	-1.96456,	-2.13532,	-2.20454,	-2.40693,	-2.50666,	-2.41219,	-2.46014,	-2.53547,	-2.64980,	-2.61368,	-2.75799,	-2.92278,	-3.12555,	-3.15170,	-3.15863,	-3.15535,	-3.29234,	-3.33480,	-3.21430,	-3.05436,	-3.11672,	-3.21137,	-3.19197,	-3.06269,	-2.94466,	-2.77442,	-2.72422,	-2.52923,	-2.50267,	-2.58738,	-2.60214,	-2.40797,	-2.34088,	-2.41434,	-2.35940,	-2.29709,	-2.34110,	-2.41254,	-2.64755,	-2.79721,	-2.90779,	-2.84183,	-2.90104,	-2.95004,	-2.95003,	-2.91096,	-2.93806,	-2.82992,	-2.69823,	-2.50434,	-2.32646,	-2.24211,	-2.27526,	-2.29024,	-2.18004,	-2.05302,	-2.05332,	-1.97421,	-2.07290,	-2.08682,	-2.03751,	-1.93637,	-1.87378,	-1.82805,	-1.81271,	-1.81030,	-1.74693,	-1.69936,	-1.65223,	-1.44043,	-1.33686,	-1.24890,	-1.28651,	-1.18487,	-1.18624,	-1.27834,	-1.45304,	-1.51188,	-1.57082,	-1.63600,	-1.82648,	-2.01203,	-2.03175,	-1.91290,	-1.81344,	-1.80005,	-1.71799,	-1.57473,	-1.65195,	-1.73240,	-1.85538,	-1.78187,	-1.68216,	-1.73505,	-1.72981,	-1.50513,	-1.35254,	-1.37583,	-1.32199,	-1.15458,	-0.98976,	-0.73600,	-0.61981,	-0.52967,	-0.42830,	-0.24074,	-0.11798,	0.04761,	0.22549,	0.47326,	0.52926,	0.43993,	0.33500,	0.27707,	0.37191,	0.51402,	0.58454,	0.55356,	0.41937,	0.25100,	0.02641,	-0.09580,	-0.30974,	-0.51313,	-0.49898,	-0.53122,	-0.66201,	-0.73663,	-0.77660,	-0.85815,	-0.82542,	-0.70933,	-0.66881,	-0.47460,	-0.30426,	-0.30532,	-0.46843,	-0.56386,	-0.61166,	-0.71887,	-0.88777,	-1.02228,	-1.08539,	-1.08363,	-0.97021,	-0.93212,	-0.75602,	-0.49305,	-0.36558,	-0.34900,	-0.22660,	0.04335,	0.15135,	0.16496,	0.18895,	0.24453,	0.32536,	0.26215,	0.22304,	0.38507,	0.60190,	0.61648,	0.58860,	0.58879,	0.52300,	0.45176,	0.38685,	0.33971,	0.31635,	0.33767,	0.23979,	-0.04382,	-0.30541,	-0.44702,	-0.50477,	-0.62569,	-0.71923,	-0.90737,	-1.15272,	-1.34695,	-1.49793,	-1.70666,	-1.98991,	-2.23704,	-2.42151,	-2.61577,	-2.87328,	-3.18789,	-3.31891,	-3.54921,	-3.84376,	-4.07638,	-4.26848,	-4.49989,	-4.59919,	-4.59339,	-4.67293,	-4.61320,	-4.43464,	-4.40339,	-4.52603,	-4.71556,	-4.77886,	-4.84518,	-4.79802,	-4.78284,	-4.62631
0.17182,	0.09636,	0.28171,	0.53139,	0.65910,	0.78057,	0.97636,	1.18334,	1.41054,	1.44110,	1.44728,	1.50297,	1.58189,	1.66066,	1.73512,	1.93297,	2.20215,	2.34943,	2.37367,	2.44703,	2.48651,	2.46823,	2.38176,	2.29854,	2.15826,	2.01828,	2.00995,	1.99308,	1.97056,	2.03153,	2.06337,	2.11165,	1.98764,	1.88617,	1.98926,	2.11990,	2.05002,	1.90025,	1.77278,	1.59313,	1.57154,	1.67858,	1.73756,	1.69127,	1.66321,	1.72774,	1.58574,	1.30579,	1.01114,	0.81261,	0.57372,	0.43129,	0.15753,	-0.07585,	-0.17484,	-0.05978,	0.00385,	0.07328,	0.26243,	0.39381,	0.30894,	0.27940,	0.23907,	0.35608,	0.36758,	0.32496,	0.45473,	0.72594,	0.82217,	0.78384,	0.81684,	0.84670,	0.88751,	0.89291,	0.84423,	0.96914,	1.00691,	1.02207,	0.90326,	0.83483,	0.83226,	0.87893,	0.71722,	0.60767,	0.49972,	0.35673,	0.20064,	0.20821,	0.17384,	0.12252,	0.15852,	0.08300,	-0.18694,	-0.42047,	-0.73862,	-0.94229,	-1.21853,	-1.51140,	-1.68626,	-1.78202,	-1.93496,	-2.05727,	-2.14340,	-2.35668,	-2.43595,	-2.35635,	-2.41939,	-2.43591,	-2.50601,	-2.46861,	-2.58085,	-2.75169,	-2.99007,	-3.06990,	-3.18654,	-3.16643,	-3.17447,	-3.16867,	-3.17941,	-3.10716,	-3.19787,	-3.33194,	-3.27899,	-3.07439,	-2.96336,	-2.81972,	-2.75329,	-2.50322,	-2.38340,	-2.46601,	-2.47649,	-2.32470,	-2.23413,	-2.29418,	-2.25918,	-2.18503,	-2.21876,	-2.30150,	-2.53846,	-2.61118,	-2.65381,	-2.60329,	-2.70173,	-2.81007,	-2.85244,	-2.79963,	-2.84860,	-2.76095,	-2.66162,	-2.53348,	-2.47057,	-2.38486,	-2.34266,	-2.39602,	-2.35380,	-2.22438,	-2.23610,	-2.19806,	-2.28759,	-2.27241,	-2.16632,	-2.03500,	-1.92687,	-1.84654,	-1.75403,	-1.74520,	-1.74322,	-1.72940,	-1.68904,	-1.48650,	-1.40806,	-1.27515,	-1.25943,	-1.21174,	-1.25574,	-1.36595,	-1.50152,	-1.52663,	-1.67313,	-1.85305,	-2.09031,	-2.25210,	-2.30301,	-2.14456,	-1.95660,	-1.97030,	-1.91725,	-1.68322,	-1.66233,	-1.69868,	-1.79495,	-1.77133,	-1.69395,	-1.77002,	-1.73486,	-1.47187,	-1.28347,	-1.31789,	-1.32526,	-1.21189,	-1.08046,	-0.87723,	-0.88500,	-0.82370,	-0.67180,	-0.45943,	-0.28153,	-0.13099,	-0.01466,	0.23055,	0.30778,	0.27421,	0.26115,	0.25071,	0.25989,	0.35920,	0.48756,	0.40509,	0.20521,	0.07400,	-0.09650,	-0.14994,	-0.28420,	-0.44301,	-0.38949,	-0.45784,	-0.63530,	-0.72528,	-0.76716,	-0.86181,	-0.89573,	-0.83419,	-0.80266,	-0.63013,	-0.51408,	-0.43364,	-0.39563,	-0.39939,	-0.43501,	-0.64296,	-0.92409,	-1.05879,	-1.10357,	-1.08423,	-0.94775,	-0.91208,	-0.80333,	-0.55012,	-0.28814,	-0.22948,	-0.17191,	0.05137,	0.14998,	0.18546,	0.29111,	0.41815,	0.52790,	0.44354,	0.38117,	0.55543,	0.77851,	0.77379,	0.62758,	0.53828,	0.48148,	0.48538,	0.46426,	0.45758,	0.51209,	0.59977,	0.60190,	0.37824,	0.10817,	-0.08138,	-0.24326,	-0.47668,	-0.63445,	-0.90339,	-1.25362,	-1.53369,	-1.59433,	-1.68878,	-1.94746,	-2.12907,	-2.25296,	-2.44041,	-2.67336,	-2.95632,	-3.07459,	-3.31628,	-3.64022,	-3.84021,	-3.99551,	-4.19607,	-4.34655,	-4.36402,	-4.37503,	-4.29756,	-4.22700,	-4.36071,	-4.54371,	-4.72162,	-4.75650,	-4.81227,	-4.85419,	-4.93882,	-4.84271
0.05799,	0.16442,	0.38438,	0.67559,	0.85754,	0.95735,	1.08629,	1.22645,	1.50416,	1.59948,	1.59445,	1.62929,	1.68306,	1.77140,	1.94030,	2.18716,	2.34010,	2.41313,	2.55431,	2.67515,	2.75307,	2.70132,	2.49337,	2.31183,	2.17561,	2.15670,	2.11368,	2.09640,	2.04350,	1.95791,	1.98999,	2.06109,	2.01806,	2.06953,	2.12660,	2.14165,	2.11022,	2.00967,	1.93777,	1.76177,	1.78353,	1.91474,	1.99310,	1.99964,	2.01848,	1.98944,	1.79818,	1.47834,	1.05050,	0.72673,	0.55076,	0.38722,	0.17105,	-0.04669,	-0.28496,	-0.30150,	-0.26331,	-0.06937,	0.01183,	0.06486,	0.02639,	0.01227,	0.12860,	0.35379,	0.38920,	0.41245,	0.51341,	0.68808,	0.89396,	0.93312,	1.00148,	0.95349,	0.99749,	1.05257,	1.04400,	1.15497,	1.16630,	1.06555,	0.94597,	0.89412,	0.78916,	0.66750,	0.53658,	0.43609,	0.37913,	0.34066,	0.20182,	0.15319,	0.00855,	-0.01322,	-0.06225,	-0.13943,	-0.29167,	-0.56218,	-0.86496,	-1.09224,	-1.37453,	-1.54784,	-1.62879,	-1.78481,	-1.88695,	-1.99256,	-2.03351,	-2.25173,	-2.28927,	-2.23516,	-2.33381,	-2.38390,	-2.41649,	-2.43216,	-2.52796,	-2.66502,	-2.88395,	-3.08154,	-3.20266,	-3.20797,	-3.17429,	-3.08904,	-3.17652,	-3.21368,	-3.39601,	-3.35652,	-3.22628,	-3.00385,	-2.84160,	-2.82622,	-2.79751,	-2.54976,	-2.39241,	-2.35799,	-2.29168,	-2.28676,	-2.19586,	-2.19871,	-2.08589,	-2.05341,	-2.10426,	-2.18814,	-2.37072,	-2.41150,	-2.39687,	-2.41892,	-2.54003,	-2.61449,	-2.64561,	-2.66004,	-2.63266,	-2.56559,	-2.56870,	-2.52054,	-2.56977,	-2.53169,	-2.58167,	-2.54321,	-2.52320,	-2.49995,	-2.42796,	-2.39784,	-2.42388,	-2.34588,	-2.25982,	-2.07545,	-1.85530,	-1.82813,	-1.71504,	-1.71484,	-1.70069,	-1.72573,	-1.68253,	-1.47156,	-1.38742,	-1.28591,	-1.19707,	-1.23147,	-1.38412,	-1.52961,	-1.62632,	-1.73225,	-1.89351,	-2.07678,	-2.30284,	-2.32254,	-2.27791,	-2.08220,	-2.02887,	-2.02240,	-1.95368,	-1.78883,	-1.61979,	-1.64209,	-1.76614,	-1.77268,	-1.76409,	-1.77623,	-1.60876,	-1.46429,	-1.36201,	-1.40627,	-1.35981,	-1.25153,	-1.15662,	-0.99605,	-1.03538,	-1.01066,	-0.81212,	-0.58026,	-0.40026,	-0.26875,	-0.18960,	-0.10679,	-0.03885,	0.06439,	0.10802,	0.19321,	0.19532,	0.22866,	0.24616,	0.22896,	0.15161,	-0.04005,	-0.15230,	-0.21436,	-0.36856,	-0.45028,	-0.42785,	-0.51582,	-0.62444,	-0.80124,	-0.90974,	-0.98063,	-0.99390,	-0.92146,	-0.84762,	-0.67029,	-0.59988,	-0.55547,	-0.41913,	-0.37940,	-0.46922,	-0.70457,	-0.94287,	-1.08434,	-1.07147,	-0.91790,	-0.85018,	-0.82918,	-0.74778,	-0.54174,	-0.30900,	-0.20606,	-0.05781,	0.04142,	0.17235,	0.26832,	0.34903,	0.50511,	0.55199,	0.47609,	0.56153,	0.73092,	0.86527,	0.85997,	0.71348,	0.64747,	0.60895,	0.71382,	0.74968,	0.69658,	0.72654,	0.78448,	0.75734,	0.60853,	0.39835,	0.13395,	-0.16145,	-0.38410,	-0.62362,	-0.87964,	-1.18469,	-1.51760,	-1.66336,	-1.77024,	-1.86216,	-2.02960,	-2.10395,	-2.26521,	-2.57802,	-2.81376,	-2.94411,	-3.16401,	-3.37060,	-3.51820,	-3.67815,	-3.83938,	-4.03181,	-4.05745,	-4.06392,	-3.98221,	-4.00655,	-4.28148,	-4.50138,	-4.61549,	-4.64239,	-4.67488,	-4.79658,	-5.02503,	-5.08554
0.12602,	0.33706,	0.54304,	0.82338,	0.98279,	1.04972,	1.13161,	1.18517,	1.42978,	1.56850,	1.59503,	1.65318,	1.72966,	1.84089,	2.03974,	2.33676,	2.51711,	2.50324,	2.60682,	2.70415,	2.74783,	2.70185,	2.52123,	2.40520,	2.36048,	2.37058,	2.24632,	2.13679,	2.01080,	1.88306,	1.94727,	2.03325,	2.04876,	2.16944,	2.19552,	2.16401,	2.14366,	2.12170,	2.14137,	1.98820,	2.00113,	2.09043,	2.14315,	2.14760,	2.15661,	2.09177,	1.87027,	1.56749,	1.22274,	0.83542,	0.60022,	0.39717,	0.16520,	-0.02727,	-0.29473,	-0.37942,	-0.35751,	-0.18231,	-0.17302,	-0.14084,	-0.12225,	-0.05265,	0.19907,	0.46878,	0.49947,	0.52779,	0.55693,	0.64644,	0.85236,	0.93070,	1.03518,	1.01673,	1.10159,	1.20253,	1.22031,	1.26140,	1.17090,	0.98822,	0.82394,	0.76244,	0.72393,	0.50878,	0.34905,	0.30251,	0.24321,	0.25143,	0.11921,	0.02270,	-0.08455,	-0.11112,	-0.24008,	-0.35430,	-0.51007,	-0.75511,	-0.94595,	-1.14755,	-1.39797,	-1.46228,	-1.49504,	-1.66145,	-1.78161,	-1.95155,	-2.03238,	-2.25735,	-2.28987,	-2.22854,	-2.31508,	-2.39346,	-2.44202,	-2.46152,	-2.54845,	-2.65528,	-2.70792,	-2.94414,	-3.17680,	-3.25786,	-3.33555,	-3.26664,	-3.33742,	-3.34923,	-3.38066,	-3.20637,	-3.04531,	-2.84585,	-2.74955,	-2.79849,	-2.73728,	-2.52114,	-2.37262,	-2.29287,	-2.23245,	-2.24149,	-2.12609,	-2.09903,	-1.97837,	-2.00491,	-2.10369,	-2.17791,	-2.30908,	-2.34332,	-2.35477,	-2.40471,	-2.47480,	-2.46401,	-2.33999,	-2.37957,	-2.48582,	-2.52382,	-2.65320,	-2.69999,	-2.80991,	-2.81358,	-2.82290,	-2.69999,	-2.66299,	-2.67188,	-2.58257,	-2.48179,	-2.34392,	-2.19564,	-2.14174,	-2.01718,	-1.85660,	-1.86281,	-1.73958,	-1.72003,	-1.69512,	-1.73239,	-1.68702,	-1.45276,	-1.34314,	-1.26201,	-1.19304,	-1.28840,	-1.50958,	-1.71753,	-1.74776,	-1.87150,	-2.11498,	-2.27249,	-2.43786,	-2.37017,	-2.23692,	-2.02841,	-1.98032,	-1.93292,	-1.87587,	-1.78544,	-1.62582,	-1.66011,	-1.71809,	-1.65543,	-1.63897,	-1.62587,	-1.48175,	-1.46497,	-1.44853,	-1.51601,	-1.47861,	-1.40689,	-1.37156,	-1.23356,	-1.20557,	-1.14130,	-0.97670,	-0.80768,	-0.71183,	-0.63923,	-0.47369,	-0.39569,	-0.41752,	-0.30037,	-0.23963,	-0.08863,	-0.01009,	0.03153,	0.08670,	0.20932,	0.23119,	0.02077,	-0.14201,	-0.30905,	-0.46037,	-0.46772,	-0.43974,	-0.51691,	-0.63463,	-0.87508,	-1.00083,	-1.05001,	-1.06318,	-0.99321,	-0.91084,	-0.74510,	-0.68485,	-0.68822,	-0.61461,	-0.61252,	-0.71385,	-0.88779,	-0.93220,	-0.93891,	-0.95396,	-0.83420,	-0.84914,	-0.86982,	-0.79154,	-0.61834,	-0.37143,	-0.17715,	0.04508,	0.15807,	0.31448,	0.40224,	0.47929,	0.64471,	0.64845,	0.57524,	0.67350,	0.78051,	0.85842,	0.86308,	0.79175,	0.79147,	0.75616,	0.85475,	0.86435,	0.77228,	0.75695,	0.74113,	0.67314,	0.55200,	0.44220,	0.30024,	-0.07702,	-0.39529,	-0.69271,	-0.94138,	-1.17500,	-1.49273,	-1.68581,	-1.78293,	-1.81031,	-1.93612,	-1.96398,	-2.12055,	-2.42423,	-2.57236,	-2.66628,	-2.83241,	-2.98942,	-3.13504,	-3.27035,	-3.41618,	-3.63679,	-3.73664,	-3.84225,	-3.83583,	-3.91160,	-4.18200,	-4.38096,	-4.50794,	-4.55594,	-4.62405,	-4.77994,	-4.94718,	-5.13561
0.21064,	0.37734,	0.59382,	0.88115,	1.03013,	1.05626,	1.06201,	1.08989,	1.31100,	1.46138,	1.52380,	1.74307,	1.92724,	1.99779,	2.16217,	2.41589,	2.62863,	2.65933,	2.63308,	2.62413,	2.72036,	2.68789,	2.46798,	2.36110,	2.41709,	2.37911,	2.14594,	1.98384,	1.88613,	1.76955,	1.80374,	1.94142,	2.04909,	2.11344,	2.16804,	2.20057,	2.23877,	2.28281,	2.29558,	2.18993,	2.21093,	2.24106,	2.23586,	2.28523,	2.34013,	2.23664,	2.00299,	1.69774,	1.43813,	1.12878,	0.80901,	0.51248,	0.34603,	0.16062,	-0.18476,	-0.37924,	-0.35505,	-0.27785,	-0.34078,	-0.28191,	-0.15561,	-0.05023,	0.14796,	0.38806,	0.46824,	0.42004,	0.42575,	0.54559,	0.77860,	0.90396,	0.97327,	1.06353,	1.24177,	1.36320,	1.36009,	1.38676,	1.30232,	1.01933,	0.74639,	0.58907,	0.55918,	0.39543,	0.23066,	0.15508,	0.19913,	0.23198,	0.00081,	-0.23085,	-0.25670,	-0.29667,	-0.48612,	-0.61540,	-0.72599,	-0.93361,	-1.10636,	-1.27469,	-1.37893,	-1.43402,	-1.46234,	-1.54902,	-1.63413,	-1.82043,	-2.02627,	-2.24996,	-2.25524,	-2.15634,	-2.23381,	-2.30175,	-2.27809,	-2.34457,	-2.47573,	-2.59166,	-2.59797,	-2.78364,	-3.06071,	-3.28216,	-3.36493,	-3.30591,	-3.39903,	-3.45697,	-3.33263,	-3.10658,	-2.99343,	-2.84055,	-2.73562,	-2.77870,	-2.75383,	-2.60727,	-2.39047,	-2.35577,	-2.34532,	-2.22897,	-2.01723,	-1.93634,	-1.90960,	-1.97521,	-2.05962,	-2.09802,	-2.23121,	-2.28014,	-2.22128,	-2.30729,	-2.37631,	-2.32089,	-2.15151,	-2.16626,	-2.37235,	-2.61088,	-2.74679,	-2.79691,	-2.96450,	-3.11039,	-3.08835,	-2.91132,	-2.87066,	-2.85131,	-2.65566,	-2.44946,	-2.26120,	-2.13339,	-2.01819,	-2.00039,	-1.98278,	-1.93427,	-1.72139,	-1.58058,	-1.58223,	-1.63868,	-1.57908,	-1.34105,	-1.25185,	-1.20115,	-1.08482,	-1.23305,	-1.51690,	-1.75057,	-1.79843,	-1.88403,	-2.09472,	-2.30544,	-2.37091,	-2.21155,	-2.08448,	-2.02775,	-2.00026,	-1.90184,	-1.88830,	-1.85427,	-1.68144,	-1.69984,	-1.74783,	-1.66836,	-1.53471,	-1.52447,	-1.50644,	-1.50106,	-1.45689,	-1.47725,	-1.53740,	-1.58297,	-1.58771,	-1.44721,	-1.37238,	-1.28228,	-1.07025,	-0.99299,	-1.07098,	-1.06581,	-0.87113,	-0.70946,	-0.67148,	-0.63376,	-0.54241,	-0.25602,	-0.11033,	-0.15219,	-0.09618,	0.13133,	0.15032,	-0.07591,	-0.23065,	-0.42835,	-0.61156,	-0.66254,	-0.54306,	-0.54098,	-0.72926,	-0.92897,	-0.98029,	-0.96587,	-1.01618,	-1.03325,	-0.97595,	-0.82648,	-0.77244,	-0.80701,	-0.71631,	-0.73211,	-0.88292,	-1.00353,	-0.95448,	-0.85969,	-0.82709,	-0.84518,	-0.92276,	-0.84932,	-0.76114,	-0.71576,	-0.53390,	-0.25132,	-0.00326,	0.17986,	0.42534,	0.55805,	0.59856,	0.65991,	0.68304,	0.65865,	0.61889,	0.68130,	0.80209,	0.89069,	0.90637,	0.89730,	0.87616,	0.93533,	0.86007,	0.71477,	0.74326,	0.73682,	0.59580,	0.46071,	0.37795,	0.34449,	0.04546,	-0.37981,	-0.75130,	-0.89529,	-1.09680,	-1.49203,	-1.78856,	-1.84361,	-1.87191,	-1.96274,	-1.87747,	-1.90003,	-2.16527,	-2.34878,	-2.39887,	-2.44498,	-2.64284,	-2.76591,	-2.81658,	-2.89712,	-3.10195,	-3.34525,	-3.55047,	-3.62065,	-3.74056,	-3.99323,	-4.10949,	-4.19613,	-4.34137,	-4.50115,	-4.69980,	-4.80721,	-4.96708
0.13347,	0.39117,	0.69674,	0.85082,	0.85614,	0.95505,	1.04817,	1.08611,	1.30307,	1.47590,	1.58173,	1.84704,	2.05426,	2.19515,	2.37947,	2.45199,	2.52145,	2.65786,	2.66162,	2.52045,	2.56522,	2.62718,	2.51618,	2.36591,	2.37688,	2.34496,	2.09647,	1.84830,	1.69112,	1.63535,	1.74160,	1.85125,	1.90615,	1.99687,	2.16064,	2.17420,	2.17579,	2.36520,	2.52185,	2.46168,	2.50074,	2.49232,	2.43810,	2.43252,	2.40645,	2.36862,	2.27260,	1.95000,	1.57006,	1.28233,	1.00385,	0.63936,	0.41053,	0.27552,	0.05652,	-0.15779,	-0.19373,	-0.17924,	-0.27398,	-0.28304,	-0.21935,	-0.08457,	0.14195,	0.25792,	0.19222,	0.16721,	0.32603,	0.43400,	0.56809,	0.78121,	1.00716,	1.20935,	1.47582,	1.61178,	1.55858,	1.48269,	1.29771,	1.04978,	0.82787,	0.53000,	0.30838,	0.20543,	0.16910,	0.07200,	0.10453,	0.18084,	0.02691,	-0.28697,	-0.39972,	-0.46449,	-0.64736,	-0.82693,	-1.03367,	-1.24047,	-1.31546,	-1.44911,	-1.55727,	-1.54336,	-1.41477,	-1.47219,	-1.64261,	-1.79589,	-1.89113,	-2.08691,	-2.07054,	-1.93424,	-1.98957,	-2.08043,	-2.19296,	-2.34405,	-2.40994,	-2.56150,	-2.76954,	-2.94742,	-3.09044,	-3.29091,	-3.37668,	-3.32171,	-3.31600,	-3.39730,	-3.31020,	-3.07235,	-2.94369,	-2.88076,	-2.91186,	-2.93802,	-2.80472,	-2.68361,	-2.57920,	-2.57436,	-2.43240,	-2.22179,	-2.06318,	-1.95040,	-1.83623,	-1.91040,	-1.93144,	-1.87665,	-2.00034,	-2.11619,	-2.15679,	-2.24829,	-2.20087,	-2.14361,	-2.14366,	-2.20182,	-2.36397,	-2.67870,	-2.87881,	-2.94308,	-3.01969,	-3.20298,	-3.28246,	-3.13582,	-3.03854,	-2.96318,	-2.76675,	-2.49918,	-2.19371,	-2.05954,	-2.05063,	-2.13111,	-2.04855,	-1.93391,	-1.76674,	-1.53423,	-1.34688,	-1.35136,	-1.33549,	-1.18530,	-1.15115,	-1.16298,	-1.18474,	-1.35301,	-1.47089,	-1.57816,	-1.71965,	-1.86627,	-1.97937,	-2.17130,	-2.22654,	-2.04208,	-1.83779,	-1.87270,	-1.99813,	-1.91773,	-1.86476,	-1.85725,	-1.80173,	-1.87146,	-1.83236,	-1.67759,	-1.57756,	-1.61872,	-1.56751,	-1.53540,	-1.53882,	-1.52802,	-1.52391,	-1.62960,	-1.66939,	-1.50967,	-1.41641,	-1.34045,	-1.22603,	-1.24884,	-1.31766,	-1.30014,	-1.21677,	-1.11156,	-0.95196,	-0.86354,	-0.78494,	-0.48154,	-0.21852,	-0.21621,	-0.23072,	-0.02751,	0.00736,	-0.20813,	-0.43865,	-0.70702,	-0.82951,	-0.83636,	-0.74727,	-0.73067,	-0.78572,	-0.84520,	-0.97175,	-1.04778,	-1.02467,	-1.03994,	-1.04713,	-0.90020,	-0.80660,	-0.77893,	-0.72505,	-0.83033,	-0.93824,	-0.98225,	-0.98772,	-0.97081,	-0.86991,	-0.91401,	-1.06256,	-0.95405,	-0.76390,	-0.69483,	-0.63059,	-0.40002,	-0.09060,	0.21130,	0.47078,	0.55571,	0.58120,	0.62686,	0.61910,	0.56439,	0.51563,	0.61171,	0.70359,	0.79296,	0.96578,	1.06851,	1.06418,	1.10271,	0.96654,	0.76997,	0.72564,	0.61658,	0.49838,	0.44233,	0.29430,	0.14107,	-0.06872,	-0.40997,	-0.79948,	-0.92992,	-1.06878,	-1.38917,	-1.77835,	-1.91479,	-1.90950,	-1.91248,	-1.78523,	-1.77785,	-1.95080,	-2.06436,	-2.19578,	-2.33879,	-2.47390,	-2.45643,	-2.51605,	-2.62510,	-2.70566,	-2.81733,	-3.05689,	-3.21018,	-3.39353,	-3.65285,	-3.75876,	-3.90705,	-4.06399,	-4.21953,	-4.50213,	-4.72493,	-4.83202
0.01717,	0.38269,	0.63280,	0.68400,	0.66046,	0.81554,	0.97625,	1.07805,	1.34388,	1.55679,	1.64310,	1.85297,	2.10275,	2.25211,	2.41152,	2.42090,	2.40787,	2.60728,	2.66490,	2.52601,	2.50021,	2.55386,	2.53243,	2.37369,	2.32952,	2.27252,	2.11534,	1.83134,	1.75535,	1.78716,	1.85972,	1.90241,	1.94430,	2.10525,	2.18785,	2.13209,	2.13736,	2.37374,	2.56667,	2.54223,	2.64273,	2.68909,	2.61743,	2.54347,	2.52447,	2.46221,	2.38937,	2.14223,	1.70437,	1.41378,	1.15882,	0.80686,	0.48887,	0.29777,	0.24028,	0.13539,	0.10970,	-0.01121,	-0.13304,	-0.30377,	-0.27402,	-0.09725,	0.04880,	0.07096,	-0.02979,	0.09954,	0.28806,	0.35938,	0.46517,	0.72367,	1.01810,	1.21563,	1.48429,	1.61818,	1.50011,	1.34436,	1.24512,	1.09699,	0.89859,	0.60375,	0.28612,	0.21334,	0.18383,	0.03438,	0.02743,	0.05239,	0.05170,	-0.19036,	-0.31603,	-0.50045,	-0.67000,	-0.95193,	-1.17907,	-1.34273,	-1.46906,	-1.60045,	-1.70758,	-1.56629,	-1.45296,	-1.57157,	-1.74098,	-1.78465,	-1.74863,	-1.90474,	-1.89042,	-1.80317,	-1.90342,	-2.05679,	-2.17973,	-2.35518,	-2.46382,	-2.61061,	-2.97185,	-3.16989,	-3.22543,	-3.32697,	-3.36203,	-3.42141,	-3.36254,	-3.44309,	-3.36425,	-3.23511,	-3.08117,	-3.08553,	-3.11005,	-2.98354,	-2.80999,	-2.69703,	-2.68567,	-2.59341,	-2.43871,	-2.35400,	-2.30460,	-2.18355,	-2.01771,	-2.04259,	-1.92276,	-1.74507,	-1.82453,	-2.00204,	-2.02310,	-2.05107,	-2.08223,	-2.09096,	-2.21034,	-2.29417,	-2.37690,	-2.64511,	-2.82943,	-2.98699,	-3.00596,	-3.13827,	-3.18735,	-3.17756,	-3.06579,	-2.97499,	-2.77045,	-2.40246,	-2.12830,	-2.04695,	-2.13062,	-2.09990,	-1.92976,	-1.86922,	-1.78399,	-1.55164,	-1.27634,	-1.23800,	-1.23271,	-1.16148,	-1.18990,	-1.31664,	-1.40244,	-1.46410,	-1.47866,	-1.41839,	-1.54988,	-1.76873,	-1.86668,	-2.06836,	-2.11383,	-2.02582,	-1.81763,	-1.82078,	-1.89589,	-1.87987,	-1.79930,	-1.80762,	-1.85022,	-1.84706,	-1.81266,	-1.75169,	-1.79152,	-1.78245,	-1.66549,	-1.68151,	-1.68512,	-1.61040,	-1.55805,	-1.69281,	-1.72147,	-1.54586,	-1.51918,	-1.57520,	-1.50223,	-1.43073,	-1.44086,	-1.36103,	-1.30636,	-1.26557,	-1.05948,	-0.91833,	-0.79500,	-0.60841,	-0.37606,	-0.29363,	-0.27076,	-0.19995,	-0.25110,	-0.47509,	-0.75384,	-0.86654,	-0.88678,	-0.92040,	-0.95593,	-0.91850,	-0.81635,	-0.86021,	-1.04846,	-1.17298,	-1.13025,	-1.17748,	-1.23799,	-1.07284,	-0.92096,	-0.85185,	-0.79803,	-0.86473,	-0.99492,	-1.07378,	-1.12958,	-1.20501,	-1.08249,	-1.08386,	-1.15365,	-1.05735,	-0.85552,	-0.69039,	-0.60791,	-0.44304,	-0.19188,	0.11163,	0.28231,	0.45026,	0.51483,	0.51703,	0.48658,	0.49082,	0.55404,	0.58455,	0.63944,	0.74641,	0.93160,	1.03660,	1.06266,	1.15991,	1.07359,	0.83542,	0.71189,	0.63112,	0.51275,	0.46233,	0.30437,	0.01771,	-0.17337,	-0.42961,	-0.75486,	-0.95291,	-1.17536,	-1.38821,	-1.69629,	-1.79359,	-1.79845,	-1.73528,	-1.71167,	-1.65942,	-1.72205,	-1.86056,	-2.08409,	-2.27527,	-2.25626,	-2.25048,	-2.37532,	-2.46175,	-2.44917,	-2.44817,	-2.69039,	-2.89413,	-3.13269,	-3.47280,	-3.62625,	-3.69341,	-3.81153,	-3.96766,	-4.20127,	-4.48394,	-4.55534
-0.14080,	0.19637,	0.35488,	0.51643,	0.65358,	0.77941,	0.89180,	0.98879,	1.25316,	1.53737,	1.65521,	1.78107,	1.98347,	2.09614,	2.23019,	2.33566,	2.44085,	2.61569,	2.64325,	2.59233,	2.62973,	2.62856,	2.54451,	2.37811,	2.33747,	2.27763,	2.18406,	1.92058,	1.87843,	1.91740,	1.92584,	1.97585,	2.07836,	2.20024,	2.14980,	2.13857,	2.26979,	2.44607,	2.54378,	2.50379,	2.59326,	2.72394,	2.71589,	2.60168,	2.54100,	2.37709,	2.24554,	2.11543,	1.88504,	1.66346,	1.38251,	1.07285,	0.80867,	0.56142,	0.46460,	0.37595,	0.29989,	0.05333,	-0.12462,	-0.38911,	-0.41706,	-0.27136,	-0.21845,	-0.15740,	-0.11178,	0.06387,	0.15791,	0.27323,	0.53046,	0.77555,	0.97798,	1.07344,	1.21362,	1.34526,	1.27368,	1.12737,	1.08671,	0.98269,	0.80527,	0.63026,	0.49258,	0.43722,	0.29407,	0.09686,	0.14843,	0.14331,	0.13300,	-0.06132,	-0.18475,	-0.45022,	-0.66399,	-1.01433,	-1.28138,	-1.45532,	-1.66289,	-1.77601,	-1.77917,	-1.62646,	-1.65601,	-1.76875,	-1.73521,	-1.67933,	-1.64596,	-1.79271,	-1.88012,	-1.89167,	-2.00859,	-2.19932,	-2.29608,	-2.42876,	-2.57983,	-2.70147,	-2.94820,	-3.14437,	-3.26557,	-3.36906,	-3.35977,	-3.50155,	-3.52923,	-3.62752,	-3.54371,	-3.48003,	-3.34692,	-3.33048,	-3.29418,	-3.09050,	-2.94366,	-2.81807,	-2.73087,	-2.60314,	-2.58818,	-2.63771,	-2.52748,	-2.39518,	-2.28296,	-2.24756,	-2.09221,	-1.85274,	-1.80959,	-1.94438,	-1.93976,	-1.95329,	-2.10676,	-2.18102,	-2.19536,	-2.23145,	-2.31657,	-2.54424,	-2.61949,	-2.77992,	-2.86020,	-2.98137,	-2.98271,	-3.02362,	-2.93488,	-2.85227,	-2.67759,	-2.32754,	-2.16570,	-2.13897,	-2.15485,	-2.02201,	-1.90283,	-1.88769,	-1.71145,	-1.50884,	-1.33916,	-1.31863,	-1.33972,	-1.27488,	-1.27441,	-1.43822,	-1.54613,	-1.54732,	-1.54558,	-1.43921,	-1.46541,	-1.66509,	-1.81684,	-2.04931,	-2.02107,	-1.94991,	-1.83156,	-1.81006,	-1.79034,	-1.79677,	-1.74641,	-1.78227,	-1.88224,	-1.86338,	-1.91041,	-1.98721,	-2.04738,	-1.97914,	-1.90180,	-1.94094,	-1.78986,	-1.63432,	-1.63825,	-1.79921,	-1.87460,	-1.73726,	-1.73052,	-1.83558,	-1.76320,	-1.59906,	-1.54951,	-1.41620,	-1.24263,	-1.13395,	-0.96678,	-0.84828,	-0.64587,	-0.47437,	-0.35927,	-0.33062,	-0.31060,	-0.34186,	-0.49846,	-0.76059,	-1.05352,	-1.06444,	-1.04945,	-1.11949,	-1.17694,	-1.13717,	-1.06437,	-1.13416,	-1.14764,	-1.12917,	-1.14728,	-1.27473,	-1.40990,	-1.29069,	-1.09201,	-1.01565,	-1.01855,	-1.08239,	-1.24470,	-1.36987,	-1.36552,	-1.36532,	-1.26052,	-1.23016,	-1.15610,	-0.99875,	-0.86079,	-0.73524,	-0.63521,	-0.49001,	-0.31943,	-0.10541,	-0.01172,	0.19434,	0.28311,	0.26892,	0.29038,	0.38802,	0.46423,	0.42704,	0.57625,	0.80683,	0.90797,	0.91977,	0.93388,	1.04314,	1.05880,	0.86917,	0.70558,	0.62689,	0.47936,	0.39591,	0.30849,	0.12123,	-0.07815,	-0.34962,	-0.60379,	-0.77057,	-1.07886,	-1.32788,	-1.55537,	-1.56673,	-1.57280,	-1.52432,	-1.62158,	-1.64525,	-1.71816,	-1.90242,	-2.06248,	-2.12263,	-2.06257,	-2.13817,	-2.20672,	-2.14041,	-2.15110,	-2.25624,	-2.59261,	-2.89249,	-3.12394,	-3.43287,	-3.59014,	-3.60451,	-3.68227,	-3.80206,	-3.91368,	-4.05314,	-4.12645
