0.71505,	0.36097,	0.09814,	-0.17889,	-0.42935,	-0.55663,	-0.66699,	-0.78259,	-0.73080,	-0.85871,	-0.93575,	-1.08483,	-1.27479,	-1.35483,	-1.35545,	-1.44705,	-1.62070,	-1.71540,	-1.85549,	-1.95425,	-1.92613,	-2.00380,	-2.00922,	-2.24065,	-2.49199,	-2.83013,	-3.14302,	-3.32817,	-3.30084,	-3.36562,	-3.43623,	-3.46996,	-3.44750,	-3.45923,	-3.42268,	-3.54674,	-3.83156,	-4.04034,	-4.11908,	-4.23432,	-4.17820,	-4.14753,	-3.99264,	-3.86320,	-3.83072,	-3.70974,	-3.50804,	-3.38522,	-3.34972,	-3.24076,	-3.16787,	-3.11741,	-2.93857,	-2.80390,	-2.60935,	-2.54126,	-2.36975,	-2.19259,	-2.00570,	-1.80377,	-1.56687,	-1.58337,	-1.53806,	-1.49690,	-1.45149,	-1.49668,	-1.47645,	-1.36053,	-1.29802,	-1.29709,	-1.27709,	-1.40607,	-1.46184,	-1.56276,	-1.53672,	-1.47647,	-1.51040,	-1.47390,	-1.32004,	-1.21495,	-1.25988,	-1.25278,	-1.18400,	-1.25372,	-1.30329,	-1.49165,	-1.63697,	-1.76557,	-1.80705,	-1.96204,	-2.24136,	-2.45751,	-2.43441,	-2.42756,	-2.40555,	-2.42305,	-2.52586,	-2.66717,	-2.70237,	-2.68920,	-2.82978,	-2.96906,	-2.99650,	-3.11901,	-3.16503,	-3.21709,	-3.17079,	-3.00101,	-2.91174,	-2.81121,	-2.61670,	-2.45720,	-2.42349,	-2.29037,	-2.17851,	-2.16702,	-2.01743,	-1.82336,	-1.53192,	-1.19708,	-0.89522,	-0.69592,	-0.50323,	-0.29851,	-0.02593,	0.05408,	0.03981,	0.12926,	0.19068,	0.12260,	0.11492,	0.19868,	0.21739,	0.24065,	0.40207,	0.44130,	0.48899,	0.51283,	0.51818,	0.61707,	0.57977,	0.51244,	0.55720,	0.45363,	0.13543,	-0.15869,	-0.34029,	-0.46597,	-0.48655,	-0.65323,	-0.92001,	-1.08854,	-1.13034,	-1.07501,	-1.03803,	-0.95244,	-0.77198,	-0.58741,	-0.52868,	-0.42453,	-0.44949,	-0.54068,	-0.64016,	-0.69148,	-0.86596,	-1.00367,	-0.91540,	-0.82663,	-0.73707,	-0.65090,	-0.61439,	-0.50150,	-0.52055,	-0.52307,	-0.40060,	-0.27200,	-0.24177,	-0.12396,	0.09307,	0.27018,	0.40668,	0.41813,	0.44645,	0.57281,	0.72010,	0.85974,	0.89060,	1.01705,	1.16688,	1.16304,	1.00022,	0.91725,	0.75491,	0.56604,	0.40984,	0.34956,	0.12856,	-0.17616,	-0.35940,	-0.47567,	-0.58534,	-0.58301,	-0.60150,	-0.56023,	-0.65783,	-0.83676,	-0.87273,	-0.74746,	-0.69035,	-0.71118,	-0.68414,	-0.62786,	-0.49180,	-0.38601,	-0.42920,	-0.44478,	-0.52571,	-0.53817,	-0.62734,	-0.67081,	-0.69544,	-0.68472,	-0.80475,	-0.82285,	-0.88664,	-0.93941,	-0.99391,	-0.96012,	-1.04918,	-1.27400,	-1.40172,	-1.47863,	-1.53741,	-1.41573,	-1.37799,	-1.22879,	-1.15048,	-1.13726,	-1.09296,	-1.00758,	-1.19917,	-1.55822,	-1.76074,	-1.85279,	-1.79635,	-1.66923,	-1.58878,	-1.25325,	-0.95167,	-0.71173,	-0.67497,	-0.67134,	-0.69020,	-0.64708,	-0.68726,	-0.58334,	-0.49586,	-0.37291,	-0.19909,	0.17659,	0.48391,	0.64700,	0.83914,	0.95831,	0.90318,	0.86678,	0.74869,	0.80475,	0.77373,	0.54419,	0.36322,	0.39217,	0.45378,	0.47388,	0.55654,	0.59099,	0.58219,	0.61998,	0.50321,	0.52685,	0.49633,	0.58176,	0.60454,	0.63399,	0.62749,	0.67689,	0.58405,	0.54278,	0.40761,	0.17666,	-0.06404,	-0.12319,	-0.07714,	-0.07079,	-0.03185,	0.08561,	0.12062,	0.24893,	0.22436,	0.24945,	0.09827,	-0.23569,	-0.44753,	-0.45496,	-0.49336,	-0.71539
0.90531,	0.52980,	0.22937,	-0.12384,	-0.29269,	-0.46910,	-0.65254,	-0.75568,	-0.85934,	-1.05064,	-1.16924,	-1.31529,	-1.37626,	-1.37396,	-1.42790,	-1.45205,	-1.59549,	-1.67149,	-1.86267,	-1.98291,	-1.98175,	-2.07582,	-2.11853,	-2.31933,	-2.64749,	-3.00040,	-3.30770,	-3.50965,	-3.55675,	-3.54404,	-3.55447,	-3.55224,	-3.48546,	-3.58455,	-3.66637,	-3.91816,	-4.10433,	-4.26399,	-4.32946,	-4.32376,	-4.31584,	-4.29076,	-4.11668,	-4.00162,	-3.93157,	-3.78205,	-3.68786,	-3.53641,	-3.43145,	-3.24758,	-3.20018,	-3.14185,	-2.96313,	-2.83466,	-2.67420,	-2.54848,	-2.44938,	-2.30272,	-2.09114,	-1.88166,	-1.67026,	-1.58195,	-1.47034,	-1.39046,	-1.26383,	-1.33467,	-1.35450,	-1.34437,	-1.25262,	-1.25431,	-1.30898,	-1.34269,	-1.41503,	-1.54330,	-1.52300,	-1.53505,	-1.57853,	-1.50487,	-1.49662,	-1.45871,	-1.50161,	-1.46833,	-1.42724,	-1.48838,	-1.53240,	-1.72364,	-1.88453,	-1.89373,	-1.90212,	-2.01128,	-2.21569,	-2.40008,	-2.43960,	-2.42226,	-2.39506,	-2.42728,	-2.46244,	-2.59449,	-2.63030,	-2.68064,	-2.76629,	-2.86368,	-2.97324,	-3.05288,	-3.16614,	-3.30940,	-3.28028,	-3.17267,	-3.04518,	-2.84014,	-2.74154,	-2.62764,	-2.57020,	-2.42166,	-2.33158,	-2.30039,	-2.13286,	-1.91915,	-1.61799,	-1.17794,	-0.79080,	-0.54214,	-0.30980,	-0.09346,	0.10523,	0.17809,	0.22556,	0.29269,	0.35545,	0.23321,	0.13991,	0.14697,	0.21439,	0.30070,	0.37933,	0.45125,	0.48292,	0.45129,	0.45931,	0.49049,	0.47908,	0.53519,	0.54835,	0.40294,	0.12028,	-0.17103,	-0.37059,	-0.47326,	-0.45547,	-0.60411,	-0.89060,	-1.01781,	-1.03533,	-1.04911,	-1.07864,	-1.04032,	-0.96036,	-0.79765,	-0.63594,	-0.52282,	-0.49811,	-0.56861,	-0.69241,	-0.76716,	-0.90805,	-0.93870,	-0.89676,	-0.76890,	-0.61299,	-0.56644,	-0.53493,	-0.50119,	-0.55814,	-0.51056,	-0.44808,	-0.40967,	-0.39024,	-0.30715,	-0.12173,	0.05551,	0.28564,	0.35074,	0.36768,	0.54222,	0.77859,	0.92116,	0.99576,	1.11730,	1.14691,	1.05665,	0.97000,	0.91933,	0.84864,	0.70550,	0.50885,	0.41281,	0.18500,	-0.01576,	-0.29713,	-0.48169,	-0.58781,	-0.69278,	-0.73508,	-0.77521,	-0.92403,	-1.04665,	-1.05588,	-0.93339,	-0.76823,	-0.72149,	-0.65786,	-0.60338,	-0.42047,	-0.35893,	-0.51654,	-0.58230,	-0.61699,	-0.65341,	-0.70623,	-0.74543,	-0.85371,	-0.93069,	-0.97323,	-0.98794,	-1.01876,	-1.02847,	-1.12016,	-1.09451,	-1.16655,	-1.24987,	-1.41860,	-1.53529,	-1.55536,	-1.54272,	-1.53527,	-1.46317,	-1.48686,	-1.45676,	-1.39681,	-1.35862,	-1.41799,	-1.68536,	-1.82164,	-1.85204,	-1.65575,	-1.45350,	-1.35257,	-1.03081,	-0.68192,	-0.49014,	-0.43769,	-0.39457,	-0.43908,	-0.48925,	-0.47744,	-0.39277,	-0.31934,	-0.20065,	-0.17202,	0.07917,	0.28752,	0.54403,	0.72452,	0.78677,	0.79573,	0.69805,	0.63625,	0.77442,	0.78122,	0.66511,	0.57676,	0.54471,	0.64737,	0.61425,	0.59249,	0.52301,	0.51286,	0.55162,	0.42573,	0.39516,	0.40671,	0.44370,	0.47069,	0.50392,	0.44636,	0.39625,	0.36675,	0.39743,	0.37821,	0.28666,	0.05062,	-0.00441,	-0.01162,	0.08532,	0.13720,	0.15209,	0.17370,	0.17270,	0.08337,	0.11148,	-0.04141,	-0.32053,	-0.46820,	-0.54297,	-0.53648,	-0.72954
0.91204,	0.61292,	0.33369,	0.03009,	-0.07641,	-0.29320,	-0.53895,	-0.73192,	-0.98809,	-1.17376,	-1.29702,	-1.42722,	-1.41870,	-1.42256,	-1.51154,	-1.50667,	-1.60561,	-1.64132,	-1.87932,	-2.09221,	-2.14686,	-2.23284,	-2.33445,	-2.58117,	-2.92443,	-3.24295,	-3.48988,	-3.54540,	-3.64738,	-3.68814,	-3.68608,	-3.74192,	-3.66295,	-3.76754,	-3.93519,	-4.18259,	-4.25778,	-4.35237,	-4.39991,	-4.37323,	-4.40229,	-4.30807,	-4.08916,	-3.97687,	-3.90352,	-3.84057,	-3.86786,	-3.74107,	-3.56952,	-3.26874,	-3.20774,	-3.17422,	-3.00806,	-2.85589,	-2.71282,	-2.62220,	-2.59829,	-2.49099,	-2.26213,	-1.90040,	-1.66475,	-1.56607,	-1.40799,	-1.35449,	-1.19101,	-1.20335,	-1.21819,	-1.23628,	-1.14704,	-1.15796,	-1.24996,	-1.27471,	-1.39692,	-1.50528,	-1.47950,	-1.53627,	-1.58338,	-1.54976,	-1.68203,	-1.77580,	-1.87398,	-1.83212,	-1.83096,	-1.90479,	-1.90732,	-2.00932,	-2.12389,	-2.12485,	-2.14785,	-2.22741,	-2.36183,	-2.37041,	-2.37183,	-2.43027,	-2.45208,	-2.54353,	-2.53739,	-2.56811,	-2.55995,	-2.58861,	-2.60103,	-2.65590,	-2.79460,	-2.87904,	-3.06723,	-3.25478,	-3.24074,	-3.18687,	-3.02547,	-2.77618,	-2.76182,	-2.71760,	-2.68354,	-2.52547,	-2.43194,	-2.40667,	-2.24785,	-1.99844,	-1.67479,	-1.23952,	-0.84427,	-0.55785,	-0.28640,	0.05318,	0.29578,	0.31007,	0.35584,	0.32230,	0.30380,	0.20855,	0.13019,	0.14549,	0.27063,	0.37804,	0.39108,	0.45089,	0.44706,	0.42239,	0.46106,	0.41974,	0.40869,	0.49917,	0.44213,	0.26478,	0.01920,	-0.21748,	-0.39006,	-0.51699,	-0.51578,	-0.62901,	-0.89056,	-1.03354,	-1.09031,	-1.18567,	-1.29497,	-1.21048,	-1.06756,	-0.95192,	-0.78448,	-0.70595,	-0.69968,	-0.68681,	-0.72875,	-0.75138,	-0.80784,	-0.79614,	-0.80586,	-0.68425,	-0.50597,	-0.42514,	-0.35203,	-0.39269,	-0.51303,	-0.49145,	-0.51629,	-0.55593,	-0.58458,	-0.52164,	-0.33440,	-0.17658,	0.08540,	0.22354,	0.28463,	0.46032,	0.69078,	0.83637,	0.94374,	1.08988,	1.16179,	1.00899,	0.93181,	0.88184,	0.78815,	0.69716,	0.54684,	0.47171,	0.32364,	0.19276,	-0.17590,	-0.47466,	-0.66887,	-0.85513,	-0.88820,	-0.96803,	-1.12284,	-1.19478,	-1.21813,	-1.12721,	-0.93999,	-0.83833,	-0.71147,	-0.65545,	-0.47877,	-0.46258,	-0.68310,	-0.80218,	-0.85763,	-0.89325,	-0.91939,	-0.91777,	-0.91776,	-1.04446,	-1.09611,	-1.12657,	-1.23439,	-1.24340,	-1.30394,	-1.25642,	-1.20056,	-1.13682,	-1.30991,	-1.46431,	-1.53848,	-1.60880,	-1.56961,	-1.55793,	-1.67301,	-1.66087,	-1.64760,	-1.65605,	-1.65827,	-1.83039,	-1.86703,	-1.84220,	-1.58775,	-1.32209,	-1.17002,	-0.91557,	-0.64546,	-0.47964,	-0.39603,	-0.30332,	-0.21624,	-0.32328,	-0.35697,	-0.29261,	-0.30032,	-0.18993,	-0.20847,	-0.07328,	0.11362,	0.41280,	0.56838,	0.61252,	0.64780,	0.56789,	0.64601,	0.85261,	0.88591,	0.84364,	0.76821,	0.68340,	0.75516,	0.64190,	0.54690,	0.41538,	0.38371,	0.43679,	0.34578,	0.26888,	0.22255,	0.22186,	0.25619,	0.29640,	0.33864,	0.22420,	0.15041,	0.22251,	0.25447,	0.29676,	0.16862,	0.14418,	0.16295,	0.32911,	0.39354,	0.32789,	0.25188,	0.12412,	0.03082,	0.05067,	-0.11308,	-0.34496,	-0.48933,	-0.61380,	-0.61061,	-0.77828
0.96894,	0.63893,	0.35392,	0.19079,	0.04027,	-0.27452,	-0.52619,	-0.73921,	-1.09885,	-1.36231,	-1.49431,	-1.52485,	-1.57788,	-1.63956,	-1.65385,	-1.57876,	-1.60035,	-1.69003,	-1.90053,	-2.12976,	-2.25231,	-2.39738,	-2.55957,	-2.74041,	-3.05804,	-3.34665,	-3.55055,	-3.55375,	-3.62973,	-3.74752,	-3.87130,	-3.90179,	-3.80788,	-3.97849,	-4.27095,	-4.40118,	-4.37239,	-4.39766,	-4.39527,	-4.32712,	-4.36491,	-4.29405,	-4.05675,	-3.81551,	-3.80455,	-3.94489,	-4.01165,	-3.83745,	-3.58709,	-3.34639,	-3.30820,	-3.28447,	-3.16544,	-3.04129,	-2.86337,	-2.64994,	-2.63193,	-2.57947,	-2.34521,	-1.91639,	-1.63448,	-1.51347,	-1.37550,	-1.24508,	-1.07518,	-1.13041,	-1.21411,	-1.20402,	-1.13980,	-1.19073,	-1.26300,	-1.25229,	-1.40424,	-1.55882,	-1.61008,	-1.61875,	-1.68763,	-1.76386,	-1.87502,	-1.97869,	-2.10815,	-2.19854,	-2.30502,	-2.35746,	-2.26621,	-2.27302,	-2.33217,	-2.26220,	-2.30412,	-2.42902,	-2.54793,	-2.46983,	-2.36721,	-2.43543,	-2.58262,	-2.62681,	-2.49379,	-2.44269,	-2.50251,	-2.51373,	-2.47981,	-2.55355,	-2.64626,	-2.65240,	-2.84228,	-3.13488,	-3.23309,	-3.11635,	-2.93587,	-2.80946,	-2.82063,	-2.77740,	-2.76774,	-2.69633,	-2.62238,	-2.52893,	-2.30780,	-2.02266,	-1.66643,	-1.16202,	-0.79794,	-0.53875,	-0.21297,	0.18223,	0.45167,	0.45421,	0.40230,	0.30113,	0.27668,	0.18132,	0.03087,	0.03020,	0.19043,	0.24172,	0.20810,	0.29192,	0.34250,	0.35247,	0.38732,	0.39348,	0.40282,	0.37896,	0.28050,	0.17786,	0.05214,	-0.15262,	-0.39243,	-0.57111,	-0.59982,	-0.72751,	-0.99529,	-1.06819,	-1.11012,	-1.31221,	-1.48271,	-1.36452,	-1.09803,	-0.90474,	-0.85161,	-0.83825,	-0.77343,	-0.71403,	-0.73946,	-0.70141,	-0.64120,	-0.70150,	-0.75418,	-0.58239,	-0.33782,	-0.26523,	-0.28800,	-0.37744,	-0.54318,	-0.67255,	-0.71842,	-0.68723,	-0.66185,	-0.61742,	-0.51627,	-0.38717,	-0.15112,	0.03690,	0.17708,	0.42669,	0.64999,	0.73207,	0.84923,	0.97684,	1.09879,	1.01560,	0.87929,	0.76858,	0.73516,	0.66502,	0.45717,	0.36265,	0.37768,	0.28213,	-0.09607,	-0.42885,	-0.65776,	-0.92841,	-1.10490,	-1.19118,	-1.22890,	-1.33328,	-1.39539,	-1.29118,	-1.06297,	-0.93947,	-0.89126,	-0.81592,	-0.62980,	-0.64842,	-0.89522,	-0.95343,	-0.90650,	-0.94935,	-1.02063,	-1.04427,	-0.98334,	-1.04597,	-1.12713,	-1.21067,	-1.28924,	-1.36531,	-1.49577,	-1.47535,	-1.25471,	-1.15937,	-1.35749,	-1.52170,	-1.60568,	-1.69865,	-1.69485,	-1.69479,	-1.73492,	-1.80737,	-1.86571,	-1.86464,	-1.83124,	-1.88967,	-1.90552,	-1.82809,	-1.57407,	-1.27463,	-1.08553,	-0.85235,	-0.56858,	-0.44075,	-0.38284,	-0.30347,	-0.15771,	-0.21235,	-0.31742,	-0.34810,	-0.28173,	-0.13829,	-0.20956,	-0.23195,	-0.01704,	0.23717,	0.30941,	0.40349,	0.57920,	0.60885,	0.70805,	0.89906,	1.05818,	0.99396,	0.84095,	0.79599,	0.88347,	0.73466,	0.49529,	0.34783,	0.35283,	0.44141,	0.33517,	0.22922,	0.21370,	0.17090,	0.18223,	0.22803,	0.29041,	0.16673,	0.06222,	0.08541,	0.23554,	0.37140,	0.26375,	0.15592,	0.22745,	0.43723,	0.50139,	0.45241,	0.39705,	0.22814,	0.05847,	-0.05535,	-0.18182,	-0.39475,	-0.58185,	-0.68521,	-0.69282,	-0.81208
0.88312,	0.63976,	0.35370,	0.14799,	-0.06445,	-0.41001,	-0.67347,	-0.93881,	-1.28521,	-1.47833,	-1.62519,	-1.72577,	-1.82033,	-1.75052,	-1.71066,	-1.72476,	-1.68832,	-1.64352,	-1.77386,	-1.93516,	-2.07253,	-2.27647,	-2.52247,	-2.77920,	-3.04510,	-3.17019,	-3.37915,	-3.60274,	-3.70864,	-3.76027,	-3.99142,	-4.10134,	-4.00402,	-4.05423,	-4.33212,	-4.46519,	-4.37024,	-4.29239,	-4.27852,	-4.28108,	-4.34546,	-4.23921,	-4.00517,	-3.80136,	-3.82489,	-3.89873,	-3.94444,	-3.86009,	-3.62824,	-3.38259,	-3.39081,	-3.37721,	-3.27730,	-3.15078,	-2.95153,	-2.76905,	-2.74661,	-2.59672,	-2.34532,	-2.07952,	-1.86329,	-1.61533,	-1.43891,	-1.31550,	-1.18408,	-1.16816,	-1.24754,	-1.28669,	-1.19449,	-1.17400,	-1.21321,	-1.27731,	-1.50140,	-1.62001,	-1.71824,	-1.84917,	-1.99443,	-1.99836,	-2.00847,	-2.15651,	-2.30714,	-2.34525,	-2.48743,	-2.51981,	-2.34285,	-2.27179,	-2.33213,	-2.37259,	-2.46305,	-2.50704,	-2.60271,	-2.65666,	-2.58461,	-2.51195,	-2.60831,	-2.62706,	-2.42229,	-2.22432,	-2.30482,	-2.43864,	-2.45212,	-2.51308,	-2.55186,	-2.55208,	-2.73591,	-2.96367,	-3.04694,	-2.96737,	-2.88680,	-2.82403,	-2.83758,	-2.90497,	-2.95820,	-2.79663,	-2.65668,	-2.50458,	-2.21311,	-1.88291,	-1.49891,	-1.05975,	-0.80485,	-0.48535,	-0.07423,	0.18875,	0.29729,	0.35617,	0.33294,	0.21006,	0.22661,	0.24736,	0.12425,	-0.00935,	0.05413,	0.09491,	0.04592,	0.05706,	0.07978,	0.17973,	0.33069,	0.38526,	0.38320,	0.40193,	0.37460,	0.24987,	0.14597,	0.06263,	-0.19054,	-0.47441,	-0.54571,	-0.70051,	-0.99437,	-1.10434,	-1.19220,	-1.32490,	-1.38641,	-1.32844,	-1.14918,	-0.86569,	-0.81726,	-0.88652,	-0.83678,	-0.70217,	-0.62397,	-0.60086,	-0.53273,	-0.55674,	-0.56303,	-0.40373,	-0.25975,	-0.26849,	-0.34322,	-0.53793,	-0.81996,	-0.95352,	-0.88696,	-0.85837,	-0.86783,	-0.74233,	-0.57577,	-0.48483,	-0.30029,	-0.08927,	0.11370,	0.33507,	0.42291,	0.50561,	0.73341,	0.83729,	0.88526,	0.92647,	0.88443,	0.69750,	0.63598,	0.63193,	0.48902,	0.31012,	0.30044,	0.26106,	-0.00438,	-0.31264,	-0.62051,	-0.93789,	-1.16079,	-1.30147,	-1.36811,	-1.45549,	-1.46114,	-1.44161,	-1.30290,	-1.12146,	-0.99988,	-0.90869,	-0.69449,	-0.66532,	-0.84309,	-0.86785,	-0.85819,	-0.89295,	-0.93114,	-1.04920,	-1.18604,	-1.22554,	-1.19947,	-1.31693,	-1.40739,	-1.46298,	-1.50314,	-1.53638,	-1.42629,	-1.39815,	-1.56581,	-1.72848,	-1.85315,	-1.90076,	-1.81595,	-1.82416,	-1.91329,	-2.00901,	-1.96440,	-2.00302,	-2.10082,	-2.05699,	-1.88262,	-1.76775,	-1.53913,	-1.21956,	-0.98129,	-0.72182,	-0.49172,	-0.36842,	-0.23142,	-0.22027,	-0.26650,	-0.29248,	-0.31284,	-0.41706,	-0.36588,	-0.17605,	-0.09229,	-0.15487,	-0.05546,	0.14328,	0.21156,	0.34703,	0.55774,	0.66201,	0.81832,	0.97234,	1.10397,	1.02012,	0.95464,	0.92964,	0.90358,	0.78134,	0.66760,	0.54837,	0.58000,	0.67948,	0.55000,	0.40849,	0.26671,	0.15293,	0.24424,	0.28858,	0.19252,	0.07045,	0.11118,	0.12549,	0.20723,	0.30746,	0.31837,	0.18752,	0.18156,	0.41109,	0.54278,	0.53072,	0.42490,	0.20975,	0.05193,	-0.17691,	-0.43755,	-0.66603,	-0.71971,	-0.80283,	-0.97325,	-1.08853
0.61600,	0.49094,	0.26372,	0.07271,	-0.21882,	-0.51724,	-0.84053,	-1.09786,	-1.30317,	-1.46633,	-1.65194,	-1.84443,	-1.83165,	-1.68705,	-1.68549,	-1.78844,	-1.74771,	-1.62028,	-1.70986,	-1.80618,	-1.94119,	-2.19874,	-2.52399,	-2.77741,	-2.96689,	-3.04049,	-3.21973,	-3.58309,	-3.73697,	-3.77115,	-4.02837,	-4.19216,	-4.19064,	-4.12193,	-4.30260,	-4.37483,	-4.33429,	-4.19828,	-4.23266,	-4.28046,	-4.25792,	-4.15392,	-3.96725,	-3.87604,	-3.80874,	-3.77364,	-3.85208,	-3.86764,	-3.68115,	-3.43819,	-3.47118,	-3.42997,	-3.30975,	-3.17864,	-3.02693,	-2.86668,	-2.81456,	-2.66969,	-2.39580,	-2.23973,	-2.08642,	-1.79299,	-1.58324,	-1.44917,	-1.40467,	-1.31548,	-1.31787,	-1.27290,	-1.19112,	-1.10142,	-1.15067,	-1.28392,	-1.43740,	-1.52663,	-1.67104,	-1.96734,	-2.10053,	-2.03559,	-2.09033,	-2.31293,	-2.47529,	-2.46260,	-2.59975,	-2.60237,	-2.39613,	-2.31210,	-2.43015,	-2.51598,	-2.54431,	-2.55367,	-2.61246,	-2.74515,	-2.74909,	-2.62755,	-2.66716,	-2.64769,	-2.50525,	-2.26684,	-2.29729,	-2.41142,	-2.50911,	-2.56834,	-2.58804,	-2.62503,	-2.67276,	-2.76188,	-2.80046,	-2.80400,	-2.72941,	-2.64923,	-2.76401,	-2.95883,	-3.04767,	-2.82433,	-2.65435,	-2.47582,	-2.17068,	-1.83626,	-1.48250,	-1.07994,	-0.78245,	-0.45065,	-0.03058,	0.14622,	0.12375,	0.19168,	0.20671,	0.15326,	0.15998,	0.21851,	0.18802,	0.07260,	0.04547,	0.05700,	0.00893,	-0.09439,	-0.02516,	0.15229,	0.33023,	0.35819,	0.40908,	0.56805,	0.52729,	0.32214,	0.18832,	0.14114,	-0.13056,	-0.46221,	-0.54620,	-0.70856,	-1.03978,	-1.17562,	-1.18865,	-1.25256,	-1.25484,	-1.23339,	-1.19307,	-0.93074,	-0.87648,	-0.92368,	-0.93322,	-0.81998,	-0.62298,	-0.54107,	-0.47501,	-0.47051,	-0.40287,	-0.32760,	-0.19571,	-0.21315,	-0.35840,	-0.66019,	-0.97635,	-0.99422,	-0.94632,	-1.01235,	-1.09803,	-0.94979,	-0.72838,	-0.62486,	-0.42214,	-0.20118,	-0.02608,	0.14044,	0.24824,	0.34915,	0.60227,	0.74479,	0.73640,	0.82572,	0.85292,	0.69538,	0.59133,	0.56332,	0.53842,	0.37111,	0.32248,	0.23767,	0.06046,	-0.28684,	-0.57242,	-0.82982,	-1.09971,	-1.32737,	-1.46593,	-1.46398,	-1.50591,	-1.60185,	-1.54335,	-1.33921,	-1.14950,	-1.02974,	-0.76089,	-0.67630,	-0.83364,	-0.88633,	-0.85201,	-0.88411,	-0.95897,	-1.11082,	-1.42151,	-1.50789,	-1.44796,	-1.54786,	-1.65802,	-1.74760,	-1.66683,	-1.67698,	-1.61846,	-1.69564,	-1.78357,	-1.96059,	-2.01705,	-1.91121,	-1.80002,	-1.86022,	-2.06549,	-2.08977,	-2.02579,	-2.15115,	-2.34348,	-2.27153,	-1.99396,	-1.83970,	-1.56207,	-1.21631,	-0.97388,	-0.71106,	-0.43479,	-0.28077,	-0.15360,	-0.14237,	-0.31534,	-0.34304,	-0.31020,	-0.41466,	-0.39303,	-0.27969,	-0.07348,	-0.08218,	0.01366,	0.12060,	0.23992,	0.34311,	0.55441,	0.77333,	0.94426,	1.07532,	1.13277,	1.15034,	1.14598,	1.05323,	0.91480,	0.78989,	0.75393,	0.64502,	0.70944,	0.81150,	0.66899,	0.48429,	0.30946,	0.18666,	0.24010,	0.28045,	0.09261,	-0.01314,	0.11236,	0.15138,	0.18160,	0.14921,	0.23941,	0.17150,	0.21280,	0.38164,	0.56412,	0.51837,	0.33038,	0.16965,	0.01119,	-0.28148,	-0.68461,	-0.85366,	-0.82649,	-0.97609,	-1.26260,	-1.39116
0.39541,	0.24045,	0.05800,	-0.07071,	-0.38883,	-0.66212,	-1.00450,	-1.22434,	-1.34889,	-1.57552,	-1.76624,	-1.86323,	-1.76745,	-1.70961,	-1.71628,	-1.69914,	-1.70682,	-1.69682,	-1.80621,	-1.91590,	-2.01935,	-2.23419,	-2.58218,	-2.80308,	-2.94532,	-3.05165,	-3.19036,	-3.43416,	-3.58143,	-3.68983,	-3.95455,	-4.05693,	-4.13053,	-4.12546,	-4.24068,	-4.21794,	-4.22693,	-4.13872,	-4.26261,	-4.34778,	-4.27314,	-4.23070,	-4.06773,	-3.91349,	-3.76147,	-3.75691,	-3.82819,	-3.69819,	-3.53211,	-3.44572,	-3.51564,	-3.49921,	-3.37765,	-3.21623,	-3.10378,	-2.94890,	-2.90016,	-2.86427,	-2.60365,	-2.34951,	-2.17611,	-1.94100,	-1.74726,	-1.51265,	-1.47795,	-1.44311,	-1.41857,	-1.27305,	-1.19862,	-1.11708,	-1.19302,	-1.33840,	-1.40773,	-1.53080,	-1.70786,	-1.98370,	-2.09355,	-2.12727,	-2.25735,	-2.32520,	-2.41180,	-2.48665,	-2.66839,	-2.73382,	-2.55621,	-2.43080,	-2.58560,	-2.68725,	-2.66474,	-2.70589,	-2.74218,	-2.77016,	-2.76378,	-2.71007,	-2.74654,	-2.60736,	-2.46481,	-2.33941,	-2.42833,	-2.50672,	-2.63473,	-2.69951,	-2.70608,	-2.74581,	-2.67802,	-2.69845,	-2.69920,	-2.62211,	-2.49446,	-2.52475,	-2.75806,	-2.86192,	-2.89880,	-2.79052,	-2.69391,	-2.57126,	-2.31619,	-1.96141,	-1.61682,	-1.22564,	-0.86980,	-0.57914,	-0.19483,	0.06302,	0.09813,	0.13089,	0.12816,	0.19953,	0.25937,	0.24967,	0.20658,	0.16077,	0.13418,	0.11638,	0.05373,	-0.13010,	-0.05743,	0.08653,	0.20483,	0.30883,	0.48906,	0.64646,	0.50989,	0.37404,	0.33269,	0.20420,	-0.18021,	-0.59089,	-0.71687,	-0.81853,	-1.10655,	-1.23952,	-1.19551,	-1.25724,	-1.24198,	-1.12830,	-1.03821,	-0.87237,	-0.91329,	-0.88967,	-0.84106,	-0.79130,	-0.62856,	-0.51756,	-0.44379,	-0.43894,	-0.35025,	-0.32883,	-0.21018,	-0.27394,	-0.49510,	-0.75980,	-0.98337,	-1.01164,	-1.08786,	-1.12015,	-1.12092,	-1.05003,	-0.91102,	-0.82968,	-0.63885,	-0.36731,	-0.17109,	-0.02963,	0.12156,	0.19956,	0.39989,	0.62756,	0.74327,	0.82387,	0.81566,	0.74675,	0.74360,	0.66675,	0.59713,	0.41609,	0.32415,	0.15607,	-0.02082,	-0.37078,	-0.59676,	-0.81938,	-1.17191,	-1.40417,	-1.46420,	-1.45636,	-1.66147,	-1.77490,	-1.60199,	-1.43203,	-1.33104,	-1.24715,	-1.02654,	-0.88567,	-0.94808,	-0.99393,	-0.92946,	-1.01656,	-1.21553,	-1.35433,	-1.57583,	-1.68755,	-1.70157,	-1.78168,	-1.80499,	-1.92879,	-1.90018,	-1.90151,	-1.85037,	-1.99233,	-2.02903,	-2.17668,	-2.15568,	-1.96731,	-1.90610,	-1.97391,	-2.14113,	-2.17032,	-2.25089,	-2.40260,	-2.45147,	-2.38715,	-2.20153,	-2.05166,	-1.78770,	-1.40211,	-1.09071,	-0.81865,	-0.50221,	-0.34738,	-0.29315,	-0.22089,	-0.22888,	-0.21389,	-0.22664,	-0.34194,	-0.26009,	-0.21581,	-0.07436,	-0.03500,	0.12294,	0.18293,	0.29857,	0.36285,	0.57679,	0.83931,	0.91178,	1.01444,	1.15299,	1.25160,	1.15432,	1.00501,	0.96978,	0.85122,	0.74684,	0.63209,	0.65976,	0.75066,	0.65966,	0.47480,	0.32726,	0.21467,	0.15663,	0.17763,	0.12995,	0.10365,	0.20070,	0.22808,	0.29204,	0.16934,	0.17146,	0.10473,	0.18488,	0.28909,	0.45979,	0.37946,	0.14876,	0.02223,	-0.20636,	-0.53110,	-0.86105,	-0.95554,	-1.02022,	-1.23282,	-1.38182,	-1.46611
0.20269,	0.11540,	0.01061,	-0.11751,	-0.43813,	-0.70938,	-0.91296,	-1.20121,	-1.48650,	-1.66349,	-1.79125,	-1.93216,	-1.87548,	-1.78646,	-1.66250,	-1.62122,	-1.75892,	-1.81137,	-1.93626,	-2.10097,	-2.25089,	-2.41404,	-2.68210,	-2.93031,	-3.03539,	-3.04920,	-3.22379,	-3.42635,	-3.49406,	-3.56927,	-3.79749,	-3.90960,	-4.04998,	-4.08565,	-4.11782,	-4.05889,	-4.10719,	-4.13589,	-4.23950,	-4.40185,	-4.43741,	-4.26227,	-3.98220,	-3.87355,	-3.80462,	-3.80527,	-3.73916,	-3.54902,	-3.46173,	-3.37100,	-3.32199,	-3.27085,	-3.28069,	-3.23708,	-3.12193,	-2.99437,	-2.92968,	-2.84363,	-2.69298,	-2.50557,	-2.26776,	-1.99927,	-1.81898,	-1.57149,	-1.51198,	-1.43420,	-1.31670,	-1.18008,	-1.20323,	-1.25203,	-1.27645,	-1.41871,	-1.56415,	-1.60346,	-1.62995,	-1.88829,	-2.11816,	-2.24586,	-2.33414,	-2.32359,	-2.40734,	-2.47140,	-2.60767,	-2.73529,	-2.72200,	-2.66224,	-2.76713,	-2.88223,	-2.86044,	-2.77265,	-2.80807,	-2.90425,	-2.90008,	-2.87913,	-2.90266,	-2.70214,	-2.53546,	-2.42986,	-2.50146,	-2.58177,	-2.70509,	-2.76236,	-2.65807,	-2.66209,	-2.72438,	-2.71802,	-2.56864,	-2.45841,	-2.41717,	-2.49479,	-2.59188,	-2.57809,	-2.71714,	-2.75728,	-2.66509,	-2.53664,	-2.38591,	-2.11306,	-1.73449,	-1.36994,	-1.01164,	-0.60479,	-0.25734,	-0.06810,	0.06096,	0.17425,	0.20506,	0.28068,	0.29403,	0.25301,	0.25604,	0.25922,	0.25942,	0.21017,	0.22730,	0.10264,	-0.03089,	0.00432,	0.14940,	0.26812,	0.41085,	0.51956,	0.45698,	0.38488,	0.28543,	0.11337,	-0.22899,	-0.61583,	-0.84284,	-0.95966,	-1.12045,	-1.25370,	-1.28407,	-1.28481,	-1.24420,	-1.16269,	-1.01278,	-0.83793,	-0.91095,	-0.86414,	-0.74637,	-0.62837,	-0.42591,	-0.34248,	-0.36701,	-0.46688,	-0.38591,	-0.30449,	-0.33758,	-0.42185,	-0.44219,	-0.59987,	-0.91653,	-1.08887,	-1.11900,	-1.03314,	-1.04875,	-1.04123,	-0.88270,	-0.77475,	-0.64538,	-0.42129,	-0.16838,	-0.01726,	0.10166,	0.25572,	0.45159,	0.54590,	0.63786,	0.73979,	0.73347,	0.71489,	0.79815,	0.75961,	0.75612,	0.58821,	0.36560,	0.05019,	-0.21669,	-0.45440,	-0.72628,	-0.97541,	-1.19747,	-1.39948,	-1.52839,	-1.58761,	-1.75860,	-1.78489,	-1.65443,	-1.52678,	-1.40054,	-1.34850,	-1.29885,	-1.27983,	-1.24264,	-1.21202,	-1.18165,	-1.24331,	-1.45031,	-1.68647,	-1.83789,	-1.83446,	-1.83800,	-1.94528,	-1.99246,	-2.14895,	-2.11865,	-2.08748,	-2.06513,	-2.18068,	-2.14776,	-2.11745,	-2.18355,	-2.13082,	-1.96114,	-1.95314,	-2.17896,	-2.32265,	-2.43199,	-2.51264,	-2.54527,	-2.52697,	-2.33629,	-2.14929,	-1.92956,	-1.60374,	-1.24104,	-0.96615,	-0.75857,	-0.58838,	-0.47322,	-0.42510,	-0.32805,	-0.17750,	-0.10407,	-0.20640,	-0.15830,	-0.17364,	-0.07292,	0.05674,	0.25599,	0.31911,	0.37215,	0.49041,	0.63156,	0.76688,	0.88985,	1.03415,	1.11654,	1.18891,	1.10477,	0.99810,	0.90761,	0.70175,	0.65357,	0.63183,	0.64253,	0.63940,	0.56752,	0.46621,	0.35198,	0.31657,	0.31382,	0.20932,	0.11212,	0.14919,	0.26905,	0.27787,	0.32426,	0.21222,	0.24025,	0.21781,	0.20249,	0.19091,	0.27985,	0.30527,	0.08462,	-0.16465,	-0.35210,	-0.58829,	-0.89981,	-1.04092,	-1.14512,	-1.27271,	-1.35411,	-1.46248
0.03936,	-0.04347,	-0.09991,	-0.23489,	-0.56920,	-0.78572,	-0.85734,	-1.07190,	-1.46345,	-1.72180,	-1.80639,	-1.94712,	-1.98379,	-1.93161,	-1.74164,	-1.72765,	-1.93681,	-2.05720,	-2.19624,	-2.31580,	-2.47723,	-2.56462,	-2.75007,	-2.96454,	-3.04455,	-3.04743,	-3.22676,	-3.38837,	-3.38711,	-3.43669,	-3.62303,	-3.77123,	-3.96780,	-4.06855,	-4.07116,	-4.00258,	-4.08237,	-4.10884,	-4.14408,	-4.25168,	-4.36496,	-4.24943,	-3.93393,	-3.77700,	-3.74738,	-3.77484,	-3.62277,	-3.46164,	-3.43351,	-3.34193,	-3.19168,	-3.00571,	-3.05781,	-3.05441,	-2.93029,	-2.77865,	-2.67929,	-2.60525,	-2.54682,	-2.44262,	-2.20389,	-1.95873,	-1.80444,	-1.60670,	-1.57640,	-1.50252,	-1.32404,	-1.18905,	-1.27784,	-1.36371,	-1.34701,	-1.44560,	-1.66332,	-1.76267,	-1.68787,	-1.78548,	-2.02095,	-2.22090,	-2.30155,	-2.33158,	-2.44365,	-2.51865,	-2.63807,	-2.73880,	-2.83404,	-2.82261,	-2.88574,	-2.96215,	-2.92979,	-2.80565,	-2.84582,	-2.99535,	-2.99551,	-3.01671,	-3.04798,	-2.83858,	-2.66413,	-2.54269,	-2.55673,	-2.62013,	-2.74263,	-2.76842,	-2.58724,	-2.49147,	-2.60818,	-2.70480,	-2.52454,	-2.33521,	-2.31880,	-2.43507,	-2.43978,	-2.39915,	-2.61269,	-2.74784,	-2.66780,	-2.45026,	-2.30375,	-2.06074,	-1.65860,	-1.29728,	-0.94920,	-0.52731,	-0.22155,	-0.09095,	0.07941,	0.24075,	0.29835,	0.35890,	0.31923,	0.24418,	0.25359,	0.23740,	0.21320,	0.18517,	0.32712,	0.37138,	0.18932,	0.05705,	0.10653,	0.24365,	0.38142,	0.42458,	0.38458,	0.29237,	0.10371,	-0.10041,	-0.39376,	-0.66406,	-0.87947,	-0.97464,	-1.02571,	-1.13630,	-1.20362,	-1.22254,	-1.21220,	-1.15478,	-0.95774,	-0.72865,	-0.78256,	-0.72876,	-0.60530,	-0.48684,	-0.31246,	-0.27330,	-0.39667,	-0.56935,	-0.46363,	-0.29065,	-0.33657,	-0.46740,	-0.41460,	-0.42355,	-0.69148,	-0.93682,	-0.94263,	-0.80508,	-0.86361,	-0.89599,	-0.74485,	-0.58722,	-0.45223,	-0.26747,	0.03245,	0.18457,	0.27823,	0.43887,	0.58502,	0.58207,	0.63581,	0.73985,	0.69548,	0.63511,	0.69426,	0.66623,	0.71389,	0.59862,	0.29716,	-0.11539,	-0.42000,	-0.56605,	-0.77594,	-1.07007,	-1.29798,	-1.44186,	-1.53484,	-1.63147,	-1.77686,	-1.76445,	-1.74619,	-1.67150,	-1.57117,	-1.54108,	-1.55169,	-1.64076,	-1.53937,	-1.44354,	-1.37896,	-1.37931,	-1.58038,	-1.85931,	-1.97657,	-1.91831,	-1.94915,	-2.08629,	-2.19977,	-2.39917,	-2.38958,	-2.33245,	-2.31411,	-2.37313,	-2.21738,	-2.02137,	-2.02054,	-2.07169,	-1.95774,	-1.88443,	-2.05114,	-2.26588,	-2.42301,	-2.50050,	-2.63662,	-2.68277,	-2.52431,	-2.32707,	-2.07534,	-1.78813,	-1.36743,	-1.07188,	-0.88461,	-0.69519,	-0.59756,	-0.60767,	-0.47890,	-0.22723,	-0.06523,	-0.10171,	-0.09243,	-0.15989,	-0.12622,	0.05035,	0.28308,	0.36272,	0.43419,	0.60236,	0.78204,	0.81854,	0.84992,	1.00297,	1.11071,	1.17186,	1.07571,	0.97647,	0.75998,	0.46921,	0.43682,	0.49863,	0.62736,	0.63671,	0.64052,	0.61164,	0.55589,	0.55250,	0.51866,	0.32417,	0.16120,	0.21580,	0.32343,	0.30722,	0.30124,	0.18768,	0.20663,	0.21296,	0.15408,	0.08100,	0.17660,	0.31733,	0.24114,	-0.04733,	-0.31293,	-0.52320,	-0.76380,	-0.92781,	-1.08633,	-1.19751,	-1.34186,	-1.49255
-0.00610,	-0.21421,	-0.28734,	-0.37633,	-0.62347,	-0.86858,	-1.02095,	-1.16362,	-1.42145,	-1.68346,	-1.80523,	-1.89757,	-1.98051,	-2.07923,	-1.95976,	-1.85521,	-2.03492,	-2.16865,	-2.35969,	-2.44711,	-2.53334,	-2.61199,	-2.80958,	-3.00075,	-3.09390,	-3.04845,	-3.19374,	-3.32184,	-3.33164,	-3.29799,	-3.44190,	-3.58937,	-3.74508,	-3.93625,	-3.96589,	-3.87526,	-3.87276,	-3.89676,	-4.03382,	-4.16460,	-4.24429,	-4.22288,	-4.01982,	-3.76842,	-3.63790,	-3.68175,	-3.53820,	-3.28198,	-3.24097,	-3.18417,	-3.09595,	-2.89260,	-2.83855,	-2.78731,	-2.70865,	-2.57304,	-2.51418,	-2.42757,	-2.36995,	-2.28282,	-2.13752,	-1.89685,	-1.73385,	-1.58244,	-1.55269,	-1.56961,	-1.42190,	-1.22846,	-1.16412,	-1.20074,	-1.31716,	-1.52046,	-1.73747,	-1.85615,	-1.81287,	-1.77222,	-1.87312,	-2.10696,	-2.25560,	-2.22533,	-2.30530,	-2.38752,	-2.58077,	-2.73479,	-2.82814,	-2.85696,	-3.01081,	-3.11013,	-3.11196,	-2.96694,	-2.96475,	-3.07196,	-3.08126,	-3.05050,	-3.01782,	-2.81355,	-2.58859,	-2.47977,	-2.49988,	-2.54154,	-2.57719,	-2.59184,	-2.56379,	-2.52415,	-2.55361,	-2.61180,	-2.48435,	-2.26035,	-2.19181,	-2.39722,	-2.51945,	-2.43327,	-2.54411,	-2.62144,	-2.58344,	-2.39699,	-2.19496,	-1.93353,	-1.59816,	-1.27117,	-0.99139,	-0.59375,	-0.25052,	-0.09728,	0.03775,	0.22269,	0.35773,	0.45142,	0.49916,	0.41086,	0.33335,	0.24565,	0.25009,	0.29767,	0.36031,	0.37517,	0.27746,	0.14980,	0.09280,	0.21204,	0.41809,	0.41181,	0.24871,	0.16731,	0.03809,	-0.15331,	-0.47164,	-0.75415,	-0.88878,	-0.92074,	-1.00460,	-1.12594,	-1.21222,	-1.23703,	-1.18136,	-1.09066,	-0.89551,	-0.62213,	-0.56723,	-0.51668,	-0.39316,	-0.35683,	-0.34020,	-0.34558,	-0.40620,	-0.47972,	-0.46104,	-0.37996,	-0.39258,	-0.50897,	-0.50867,	-0.46421,	-0.51922,	-0.68211,	-0.77457,	-0.63008,	-0.60855,	-0.62997,	-0.51531,	-0.42026,	-0.27090,	-0.06856,	0.17352,	0.26811,	0.30300,	0.41638,	0.59503,	0.64554,	0.73132,	0.82668,	0.82483,	0.68012,	0.68993,	0.65716,	0.61561,	0.50787,	0.26740,	-0.06832,	-0.46192,	-0.71147,	-0.87500,	-1.11435,	-1.38742,	-1.53093,	-1.49191,	-1.56310,	-1.82238,	-1.84309,	-1.77564,	-1.73161,	-1.70865,	-1.78347,	-1.79526,	-1.85906,	-1.79784,	-1.72606,	-1.64496,	-1.60936,	-1.70502,	-1.93325,	-2.05502,	-2.07200,	-2.06948,	-2.20389,	-2.29644,	-2.43882,	-2.51129,	-2.46749,	-2.41070,	-2.37577,	-2.24872,	-2.11837,	-2.02413,	-1.98649,	-1.94276,	-1.92649,	-1.99532,	-2.18676,	-2.45875,	-2.60741,	-2.71614,	-2.78613,	-2.66522,	-2.55931,	-2.31645,	-1.98690,	-1.57654,	-1.25874,	-1.00633,	-0.80813,	-0.66371,	-0.69376,	-0.57334,	-0.32934,	-0.05567,	-0.02055,	0.00931,	-0.01639,	-0.07646,	0.08168,	0.35730,	0.54357,	0.60284,	0.65220,	0.80642,	0.86021,	0.80708,	0.86842,	1.04736,	1.15683,	0.97410,	0.81634,	0.67509,	0.41292,	0.39350,	0.42893,	0.61046,	0.73538,	0.77360,	0.71351,	0.63601,	0.54512,	0.51101,	0.33536,	0.20327,	0.24511,	0.40672,	0.39212,	0.31390,	0.17981,	0.07691,	0.04780,	0.05882,	0.12362,	0.24387,	0.28605,	0.20956,	0.00684,	-0.26233,	-0.54088,	-0.72841,	-0.83809,	-1.07764,	-1.29882,	-1.41728,	-1.54915
-0.11053,	-0.28778,	-0.42209,	-0.61454,	-0.76064,	-0.94757,	-1.13868,	-1.21253,	-1.35171,	-1.50955,	-1.66128,	-1.91640,	-2.03778,	-2.09075,	-2.05708,	-2.08776,	-2.27686,	-2.34063,	-2.52055,	-2.61626,	-2.67841,	-2.73928,	-2.89407,	-2.95965,	-3.06449,	-3.04508,	-3.19605,	-3.27591,	-3.28380,	-3.27353,	-3.40661,	-3.53547,	-3.61855,	-3.65717,	-3.65411,	-3.69490,	-3.69683,	-3.71759,	-3.89821,	-4.00934,	-4.05093,	-3.99154,	-3.86018,	-3.76239,	-3.59887,	-3.48183,	-3.30851,	-3.10893,	-3.07083,	-2.99984,	-2.97249,	-2.82000,	-2.69197,	-2.56769,	-2.51629,	-2.35039,	-2.31620,	-2.23252,	-2.17378,	-2.07412,	-2.00296,	-1.88756,	-1.78496,	-1.67368,	-1.58835,	-1.46945,	-1.29926,	-1.18772,	-1.04895,	-1.01112,	-1.18780,	-1.43422,	-1.65318,	-1.71503,	-1.70767,	-1.83148,	-1.91414,	-1.98094,	-2.08776,	-2.13625,	-2.27056,	-2.33894,	-2.54433,	-2.74419,	-2.87747,	-2.96972,	-3.21576,	-3.27867,	-3.28661,	-3.15979,	-3.14249,	-3.17851,	-3.13838,	-3.06596,	-2.98406,	-2.80415,	-2.58031,	-2.35976,	-2.28777,	-2.39827,	-2.41806,	-2.38495,	-2.44581,	-2.44534,	-2.41909,	-2.38008,	-2.25343,	-2.18975,	-2.18613,	-2.33722,	-2.49530,	-2.49582,	-2.57566,	-2.55590,	-2.53165,	-2.41200,	-2.19071,	-1.88847,	-1.58558,	-1.23172,	-0.99430,	-0.67866,	-0.35374,	-0.16250,	0.02777,	0.22161,	0.36076,	0.47063,	0.58609,	0.61783,	0.59643,	0.38021,	0.31546,	0.42150,	0.40406,	0.34789,	0.31428,	0.28449,	0.24066,	0.19448,	0.27979,	0.32982,	0.21545,	0.09128,	-0.09314,	-0.28570,	-0.61159,	-0.91412,	-1.00933,	-0.99536,	-1.10025,	-1.17712,	-1.21406,	-1.20433,	-1.11044,	-1.01326,	-0.83359,	-0.57528,	-0.48222,	-0.42533,	-0.29326,	-0.20703,	-0.17021,	-0.28076,	-0.39420,	-0.37253,	-0.38049,	-0.34645,	-0.31041,	-0.38141,	-0.37821,	-0.41574,	-0.46278,	-0.46807,	-0.50568,	-0.43469,	-0.45255,	-0.43498,	-0.31113,	-0.27836,	-0.17886,	-0.00871,	0.16755,	0.25777,	0.35610,	0.45971,	0.64013,	0.72936,	0.86611,	0.94461,	0.91204,	0.70389,	0.66090,	0.67475,	0.66739,	0.46073,	0.15618,	-0.07814,	-0.47649,	-0.80475,	-0.95460,	-1.13464,	-1.32644,	-1.51572,	-1.59699,	-1.63883,	-1.85136,	-1.93003,	-1.94264,	-1.92960,	-1.94124,	-2.09552,	-2.12365,	-2.11799,	-2.05797,	-2.01492,	-1.89748,	-1.83403,	-1.83219,	-1.99175,	-2.06253,	-2.11186,	-2.15889,	-2.30535,	-2.37882,	-2.41779,	-2.36590,	-2.33998,	-2.36487,	-2.28124,	-2.18114,	-2.10668,	-1.92346,	-1.80983,	-1.76993,	-1.86747,	-2.07645,	-2.21962,	-2.40657,	-2.61822,	-2.85485,	-2.98478,	-2.87940,	-2.82291,	-2.56307,	-2.17779,	-1.76222,	-1.41760,	-1.04170,	-0.80800,	-0.62464,	-0.66011,	-0.53313,	-0.30623,	-0.09209,	-0.07503,	-0.01958,	0.04998,	0.12248,	0.25172,	0.40094,	0.64187,	0.75583,	0.75010,	0.87286,	0.90540,	0.85382,	0.83927,	0.85677,	0.97271,	0.88895,	0.71982,	0.54677,	0.35247,	0.39367,	0.38013,	0.52321,	0.72022,	0.82100,	0.75283,	0.73986,	0.62155,	0.57035,	0.39623,	0.30574,	0.35362,	0.47537,	0.44039,	0.31587,	0.16128,	0.10765,	0.07831,	0.03965,	0.17874,	0.31697,	0.28282,	0.22846,	0.10232,	-0.08899,	-0.40686,	-0.78886,	-0.95051,	-1.11712,	-1.35248,	-1.50766,	-1.63222
-0.26855,	-0.43332,	-0.62207,	-0.86621,	-1.01879,	-1.04430,	-1.13693,	-1.16660,	-1.29492,	-1.50698,	-1.61590,	-1.81964,	-1.96596,	-2.03299,	-2.04966,	-2.33012,	-2.56328,	-2.52521,	-2.60493,	-2.67457,	-2.83165,	-2.89815,	-2.92323,	-2.84459,	-2.94241,	-3.04752,	-3.15443,	-3.18193,	-3.18029,	-3.26288,	-3.32276,	-3.45986,	-3.50545,	-3.41446,	-3.35633,	-3.46656,	-3.64841,	-3.70524,	-3.80520,	-3.84845,	-3.84908,	-3.81314,	-3.68020,	-3.58989,	-3.45250,	-3.30487,	-3.06087,	-2.96220,	-2.91965,	-2.79709,	-2.78512,	-2.65225,	-2.57536,	-2.46630,	-2.38733,	-2.19812,	-2.13421,	-2.09429,	-1.97636,	-1.84283,	-1.77965,	-1.82743,	-1.75961,	-1.71923,	-1.60531,	-1.37162,	-1.18824,	-1.11760,	-1.10869,	-1.05697,	-1.11319,	-1.26148,	-1.42365,	-1.53955,	-1.60293,	-1.79019,	-1.86624,	-1.83912,	-1.82340,	-1.98583,	-2.24492,	-2.32463,	-2.49129,	-2.65680,	-2.92182,	-3.17214,	-3.43014,	-3.41762,	-3.37372,	-3.32510,	-3.26391,	-3.20223,	-3.09897,	-3.00683,	-2.83426,	-2.71275,	-2.61636,	-2.39606,	-2.26132,	-2.32208,	-2.39017,	-2.31312,	-2.26535,	-2.24281,	-2.20391,	-2.21840,	-2.14437,	-2.08646,	-2.06874,	-2.21234,	-2.35690,	-2.46466,	-2.60884,	-2.55901,	-2.54756,	-2.43741,	-2.25107,	-1.97797,	-1.63675,	-1.21356,	-0.91147,	-0.70405,	-0.42623,	-0.18647,	0.07287,	0.25936,	0.41299,	0.50212,	0.52839,	0.62233,	0.68228,	0.53146,	0.40293,	0.46308,	0.47511,	0.38364,	0.40994,	0.42310,	0.35822,	0.25775,	0.24040,	0.23042,	0.19726,	0.05369,	-0.27203,	-0.51107,	-0.81329,	-1.02476,	-1.10787,	-1.14755,	-1.22041,	-1.21972,	-1.15969,	-1.10458,	-0.98070,	-0.88166,	-0.79282,	-0.62100,	-0.49730,	-0.37511,	-0.28515,	-0.11219,	-0.03150,	-0.16276,	-0.37949,	-0.43354,	-0.35318,	-0.26421,	-0.13785,	-0.19239,	-0.28075,	-0.31889,	-0.32718,	-0.31726,	-0.33155,	-0.31252,	-0.42461,	-0.36222,	-0.20596,	-0.11759,	-0.01411,	0.03981,	0.15993,	0.27804,	0.50469,	0.63157,	0.77720,	0.87209,	0.94544,	0.98320,	0.93236,	0.80234,	0.67085,	0.68413,	0.63515,	0.35667,	0.02006,	-0.21701,	-0.48225,	-0.79527,	-0.95488,	-1.13347,	-1.34124,	-1.49468,	-1.62090,	-1.74130,	-1.92698,	-1.97811,	-2.12539,	-2.16165,	-2.20097,	-2.35439,	-2.37086,	-2.35927,	-2.28798,	-2.26720,	-2.14976,	-2.07006,	-2.00961,	-2.03320,	-2.04533,	-2.05051,	-2.15656,	-2.25925,	-2.41574,	-2.42496,	-2.29489,	-2.22263,	-2.22604,	-2.21609,	-2.09422,	-1.99649,	-1.77194,	-1.66729,	-1.77890,	-1.93509,	-2.12654,	-2.25435,	-2.40484,	-2.56529,	-2.91665,	-3.11601,	-3.05892,	-2.99454,	-2.64617,	-2.27576,	-1.88023,	-1.53769,	-1.11117,	-0.80894,	-0.60383,	-0.51443,	-0.37314,	-0.16838,	-0.11644,	-0.08437,	-0.03191,	0.12922,	0.31511,	0.42149,	0.49744,	0.63595,	0.84335,	0.90671,	0.99327,	0.95551,	0.78404,	0.75196,	0.76354,	0.84107,	0.77343,	0.67329,	0.45434,	0.34530,	0.42966,	0.37056,	0.46847,	0.61172,	0.73990,	0.73322,	0.83116,	0.81722,	0.72115,	0.58959,	0.49224,	0.51601,	0.52629,	0.55177,	0.41069,	0.21188,	0.14149,	0.08218,	0.02935,	0.05186,	0.14871,	0.15593,	0.17985,	0.12971,	-0.11006,	-0.40429,	-0.75582,	-0.98011,	-1.19877,	-1.36952,	-1.52709,	-1.63906
-0.38322,	-0.54601,	-0.73833,	-0.93664,	-1.12537,	-1.09956,	-1.14071,	-1.30342,	-1.44377,	-1.58975,	-1.66905,	-1.86637,	-2.03144,	-2.19491,	-2.21503,	-2.41304,	-2.62722,	-2.58081,	-2.60244,	-2.64168,	-2.82954,	-2.85288,	-2.82392,	-2.84052,	-2.95409,	-3.09704,	-3.15184,	-3.16426,	-3.14477,	-3.13874,	-3.10042,	-3.16742,	-3.17645,	-3.09872,	-3.04254,	-3.11754,	-3.38429,	-3.49716,	-3.57804,	-3.75253,	-3.76304,	-3.64914,	-3.52033,	-3.48935,	-3.39726,	-3.32976,	-3.04983,	-2.82105,	-2.74367,	-2.64312,	-2.64731,	-2.52235,	-2.48818,	-2.38147,	-2.28333,	-2.22475,	-2.16488,	-2.11911,	-1.96004,	-1.82582,	-1.70397,	-1.66216,	-1.56066,	-1.53818,	-1.45655,	-1.27069,	-1.11366,	-1.01829,	-1.10140,	-1.08330,	-1.05928,	-1.25156,	-1.37809,	-1.39947,	-1.45001,	-1.66583,	-1.73004,	-1.73785,	-1.68258,	-1.74146,	-2.01928,	-2.16373,	-2.35378,	-2.53650,	-2.89967,	-3.22686,	-3.46370,	-3.53000,	-3.49848,	-3.46169,	-3.34908,	-3.24359,	-3.10524,	-2.90068,	-2.63779,	-2.52189,	-2.49207,	-2.35935,	-2.23800,	-2.19676,	-2.25164,	-2.17675,	-2.07872,	-2.18175,	-2.22525,	-2.20780,	-2.13940,	-2.12354,	-2.10149,	-2.27554,	-2.41629,	-2.41555,	-2.52765,	-2.52617,	-2.54448,	-2.43294,	-2.27439,	-2.01945,	-1.66164,	-1.31424,	-0.97764,	-0.76140,	-0.50376,	-0.30391,	-0.09731,	0.13801,	0.38078,	0.47943,	0.45971,	0.54324,	0.63730,	0.64204,	0.57387,	0.59876,	0.63702,	0.46748,	0.46362,	0.56910,	0.53853,	0.35686,	0.23379,	0.11304,	0.04433,	-0.01616,	-0.31908,	-0.60780,	-0.88139,	-0.98858,	-1.04355,	-1.09572,	-1.13590,	-1.20430,	-1.19811,	-1.12857,	-1.00174,	-0.92810,	-0.91880,	-0.73316,	-0.49201,	-0.29809,	-0.19301,	-0.00145,	0.06242,	-0.01955,	-0.23728,	-0.37668,	-0.28491,	-0.25412,	-0.19355,	-0.17026,	-0.22353,	-0.28340,	-0.31881,	-0.35990,	-0.41737,	-0.32795,	-0.35106,	-0.28737,	-0.14506,	0.02677,	0.22423,	0.27027,	0.36798,	0.37475,	0.48824,	0.60969,	0.74685,	0.79696,	0.75299,	0.79395,	0.85315,	0.82017,	0.70148,	0.68624,	0.57203,	0.34356,	0.10111,	-0.13968,	-0.34447,	-0.69510,	-0.99566,	-1.14287,	-1.30309,	-1.49647,	-1.70802,	-1.90413,	-2.11225,	-2.05076,	-2.10362,	-2.18649,	-2.29633,	-2.45250,	-2.47022,	-2.48111,	-2.41629,	-2.47028,	-2.48950,	-2.38892,	-2.25629,	-2.18929,	-2.19949,	-2.15008,	-2.16065,	-2.20969,	-2.36108,	-2.36286,	-2.24344,	-2.10403,	-1.99376,	-2.02590,	-1.93380,	-1.88343,	-1.83600,	-1.75412,	-1.84787,	-2.03072,	-2.23416,	-2.36048,	-2.55348,	-2.58725,	-2.72370,	-2.91291,	-2.94349,	-2.92247,	-2.58630,	-2.25635,	-1.87177,	-1.60515,	-1.34895,	-1.02806,	-0.77386,	-0.58099,	-0.45050,	-0.24110,	-0.11350,	0.02340,	0.17399,	0.41055,	0.60769,	0.71693,	0.83350,	0.89397,	1.07862,	1.11976,	1.00517,	0.91553,	0.80084,	0.77242,	0.73356,	0.76928,	0.63314,	0.59764,	0.55708,	0.51136,	0.55310,	0.46475,	0.53116,	0.61369,	0.74873,	0.74914,	0.74336,	0.77505,	0.69723,	0.61096,	0.46832,	0.45866,	0.52182,	0.62917,	0.55640,	0.36353,	0.21605,	0.10888,	0.07910,	-0.00046,	0.01022,	0.01015,	-0.08346,	-0.12122,	-0.27053,	-0.46706,	-0.74906,	-0.98508,	-1.31441,	-1.48359,	-1.48477,	-1.53625
-0.62915,	-0.69392,	-0.83205,	-1.08655,	-1.25658,	-1.21178,	-1.25282,	-1.37084,	-1.52613,	-1.60823,	-1.67743,	-1.97665,	-2.25316,	-2.35225,	-2.35675,	-2.45439,	-2.62614,	-2.63384,	-2.58285,	-2.67314,	-2.79191,	-2.74084,	-2.67245,	-2.79815,	-2.87300,	-2.99031,	-3.11278,	-3.11955,	-3.07084,	-3.00603,	-2.95974,	-2.95263,	-2.92390,	-2.84288,	-2.78096,	-2.91238,	-3.11135,	-3.15347,	-3.26248,	-3.43244,	-3.51446,	-3.43269,	-3.36839,	-3.44921,	-3.47075,	-3.32594,	-3.00921,	-2.74257,	-2.68513,	-2.69192,	-2.64457,	-2.57944,	-2.49929,	-2.32681,	-2.16817,	-2.19325,	-2.10715,	-2.01462,	-1.94212,	-1.82424,	-1.60734,	-1.46256,	-1.39233,	-1.39970,	-1.39669,	-1.27759,	-1.10563,	-1.07988,	-1.14368,	-1.05142,	-1.03773,	-1.18370,	-1.31468,	-1.28396,	-1.27535,	-1.47393,	-1.60331,	-1.57494,	-1.49957,	-1.54299,	-1.82419,	-2.06957,	-2.23195,	-2.50454,	-2.89382,	-3.20185,	-3.38715,	-3.52451,	-3.48883,	-3.37087,	-3.30053,	-3.20607,	-3.01190,	-2.77004,	-2.56949,	-2.48017,	-2.44541,	-2.32806,	-2.15531,	-2.13379,	-2.17432,	-2.06216,	-2.04103,	-2.16649,	-2.25894,	-2.25154,	-2.17343,	-2.20742,	-2.28626,	-2.39873,	-2.43320,	-2.36484,	-2.42922,	-2.49217,	-2.45222,	-2.36595,	-2.24521,	-1.99200,	-1.63606,	-1.36877,	-1.00064,	-0.67043,	-0.50114,	-0.43686,	-0.30676,	-0.09051,	0.13137,	0.22684,	0.25802,	0.37066,	0.55522,	0.58680,	0.53997,	0.65247,	0.69458,	0.58918,	0.62218,	0.71260,	0.69174,	0.44213,	0.16616,	0.01455,	-0.01075,	-0.08149,	-0.37406,	-0.72656,	-0.92007,	-0.96414,	-1.02424,	-1.02590,	-1.02926,	-1.16512,	-1.23268,	-1.13073,	-1.11426,	-1.12123,	-1.06899,	-0.82541,	-0.56155,	-0.37920,	-0.24474,	-0.08251,	0.01909,	-0.04219,	-0.27308,	-0.34439,	-0.28422,	-0.29134,	-0.25090,	-0.25022,	-0.25049,	-0.30835,	-0.42444,	-0.46484,	-0.41406,	-0.30895,	-0.30867,	-0.30682,	-0.15448,	0.09940,	0.34047,	0.47631,	0.58529,	0.48225,	0.41791,	0.55886,	0.63645,	0.59347,	0.55578,	0.60689,	0.66021,	0.57857,	0.47964,	0.44645,	0.40400,	0.28341,	0.07356,	-0.06794,	-0.24980,	-0.61298,	-0.89934,	-1.07947,	-1.22721,	-1.48304,	-1.83916,	-2.09673,	-2.17405,	-2.07037,	-2.08719,	-2.21882,	-2.36034,	-2.47445,	-2.57520,	-2.58991,	-2.54151,	-2.61326,	-2.70327,	-2.49560,	-2.33223,	-2.31436,	-2.31574,	-2.28376,	-2.30232,	-2.38769,	-2.47866,	-2.43834,	-2.24192,	-2.03780,	-1.96155,	-1.94426,	-1.86030,	-1.87109,	-1.83304,	-1.79788,	-1.83677,	-2.00145,	-2.27326,	-2.44498,	-2.51425,	-2.46379,	-2.45487,	-2.61877,	-2.71752,	-2.71094,	-2.55713,	-2.25690,	-1.87692,	-1.62734,	-1.49479,	-1.13636,	-0.87555,	-0.77023,	-0.64757,	-0.41132,	-0.19521,	0.00880,	0.27071,	0.56025,	0.81157,	0.97087,	1.02436,	1.09910,	1.27198,	1.22147,	1.08383,	0.93965,	0.87752,	0.85688,	0.72588,	0.67312,	0.63793,	0.64698,	0.67017,	0.61129,	0.56702,	0.55128,	0.54082,	0.62567,	0.76161,	0.76183,	0.61744,	0.64656,	0.60745,	0.46404,	0.31545,	0.32790,	0.42167,	0.49521,	0.46147,	0.30113,	0.16929,	0.09436,	-0.01571,	-0.11051,	-0.09976,	-0.18394,	-0.28951,	-0.36076,	-0.45396,	-0.55891,	-0.80516,	-1.10177,	-1.36658,	-1.53725,	-1.54048,	-1.57530
-0.87970,	-0.91087,	-0.97666,	-1.16353,	-1.30496,	-1.35190,	-1.44655,	-1.53183,	-1.66575,	-1.75074,	-1.78521,	-1.95391,	-2.34396,	-2.56152,	-2.60176,	-2.68417,	-2.76064,	-2.68887,	-2.57758,	-2.65965,	-2.74929,	-2.74105,	-2.59559,	-2.60282,	-2.63241,	-2.80277,	-3.00807,	-3.01352,	-2.98186,	-2.91813,	-2.80909,	-2.73874,	-2.70671,	-2.73033,	-2.70366,	-2.78516,	-2.88281,	-2.88977,	-2.98840,	-3.11022,	-3.24099,	-3.31463,	-3.36398,	-3.34709,	-3.42823,	-3.35758,	-3.04962,	-2.84361,	-2.81493,	-2.80465,	-2.70458,	-2.60983,	-2.43243,	-2.25575,	-2.05775,	-2.02225,	-1.93817,	-1.89716,	-1.89401,	-1.72826,	-1.41479,	-1.20234,	-1.13430,	-1.16000,	-1.22617,	-1.27272,	-1.17167,	-1.15372,	-1.13867,	-1.01518,	-1.01338,	-1.10398,	-1.27420,	-1.33385,	-1.33742,	-1.31979,	-1.39877,	-1.46279,	-1.43680,	-1.57383,	-1.88890,	-2.09832,	-2.15895,	-2.36625,	-2.71849,	-3.09144,	-3.28720,	-3.38651,	-3.33749,	-3.21118,	-3.12428,	-2.95789,	-2.73643,	-2.57593,	-2.49077,	-2.45534,	-2.42385,	-2.35152,	-2.15033,	-2.06803,	-2.06051,	-2.01562,	-2.13307,	-2.27846,	-2.40836,	-2.48364,	-2.43465,	-2.32306,	-2.35354,	-2.49022,	-2.47581,	-2.39264,	-2.38761,	-2.35549,	-2.23150,	-2.14497,	-2.07173,	-1.93393,	-1.64398,	-1.33426,	-0.88437,	-0.51298,	-0.42114,	-0.38418,	-0.28634,	-0.17454,	-0.04232,	0.02744,	0.13104,	0.25992,	0.48376,	0.57340,	0.53103,	0.60595,	0.57336,	0.53813,	0.64043,	0.66035,	0.58151,	0.40941,	0.16171,	-0.06632,	-0.07994,	-0.15842,	-0.47986,	-0.81042,	-0.91959,	-0.92939,	-0.98692,	-1.00948,	-0.99230,	-1.06241,	-1.13325,	-1.12194,	-1.26007,	-1.28008,	-1.12748,	-0.83494,	-0.55602,	-0.37674,	-0.24655,	-0.17166,	-0.12207,	-0.12629,	-0.30603,	-0.35841,	-0.37187,	-0.40508,	-0.37480,	-0.43986,	-0.46803,	-0.39775,	-0.34231,	-0.39715,	-0.37593,	-0.34068,	-0.42901,	-0.43141,	-0.19299,	0.14854,	0.48045,	0.65213,	0.70884,	0.62820,	0.52773,	0.58470,	0.52486,	0.44884,	0.52421,	0.58346,	0.59030,	0.43313,	0.24669,	0.11947,	0.04385,	0.05429,	-0.02783,	-0.10712,	-0.33340,	-0.71306,	-0.97353,	-1.19338,	-1.36093,	-1.54558,	-1.81412,	-2.16304,	-2.29753,	-2.24209,	-2.32184,	-2.40499,	-2.38653,	-2.40615,	-2.52402,	-2.62448,	-2.69904,	-2.71409,	-2.70052,	-2.42010,	-2.27806,	-2.27325,	-2.22647,	-2.27478,	-2.38999,	-2.51873,	-2.60396,	-2.54001,	-2.33736,	-2.06989,	-1.95641,	-1.92373,	-1.91724,	-1.95665,	-1.84828,	-1.82677,	-1.90703,	-2.02724,	-2.15474,	-2.36061,	-2.45225,	-2.36044,	-2.30206,	-2.38893,	-2.40096,	-2.35093,	-2.29139,	-2.10050,	-1.87689,	-1.60950,	-1.38078,	-1.00566,	-0.81283,	-0.79480,	-0.67956,	-0.47732,	-0.26748,	0.00456,	0.33400,	0.64497,	0.85093,	1.01570,	1.07211,	1.15956,	1.30573,	1.22279,	1.09778,	0.90883,	0.77581,	0.74835,	0.75447,	0.70017,	0.68018,	0.70637,	0.66105,	0.54294,	0.52662,	0.59709,	0.60977,	0.70532,	0.75225,	0.76541,	0.65313,	0.63282,	0.52072,	0.33882,	0.25420,	0.29835,	0.37325,	0.41623,	0.37950,	0.24002,	0.06797,	0.03127,	-0.02483,	-0.11685,	-0.21055,	-0.42723,	-0.57015,	-0.67780,	-0.81003,	-0.85429,	-0.85193,	-1.11024,	-1.41204,	-1.57440,	-1.67108,	-1.75015
-1.05000,	-1.10133,	-1.18518,	-1.25447,	-1.27428,	-1.44491,	-1.62549,	-1.77437,	-1.85465,	-1.82636,	-1.88748,	-1.99125,	-2.36853,	-2.68409,	-2.86369,	-2.92134,	-2.88778,	-2.76049,	-2.65649,	-2.74896,	-2.75156,	-2.67373,	-2.56495,	-2.47510,	-2.53739,	-2.75360,	-2.96770,	-2.98445,	-3.04368,	-3.01206,	-2.84173,	-2.70582,	-2.62746,	-2.65857,	-2.65815,	-2.64003,	-2.60947,	-2.67292,	-2.79689,	-2.92991,	-3.04804,	-3.07023,	-3.21072,	-3.21857,	-3.30499,	-3.28102,	-3.07749,	-2.87976,	-2.80421,	-2.77458,	-2.69603,	-2.62273,	-2.33834,	-2.05091,	-1.93190,	-1.85992,	-1.80432,	-1.79295,	-1.78184,	-1.58988,	-1.35394,	-1.17761,	-1.06860,	-1.00939,	-0.98578,	-1.07305,	-1.13063,	-1.17626,	-1.07034,	-0.98099,	-0.98643,	-1.03092,	-1.20253,	-1.23537,	-1.31940,	-1.31637,	-1.35585,	-1.44959,	-1.54208,	-1.71776,	-1.96529,	-2.11418,	-2.13574,	-2.31927,	-2.59210,	-2.84809,	-3.10486,	-3.19376,	-3.18918,	-3.11920,	-2.99068,	-2.77033,	-2.62106,	-2.56183,	-2.48778,	-2.43029,	-2.35050,	-2.26701,	-2.14181,	-2.05929,	-1.95552,	-1.96798,	-2.18016,	-2.37573,	-2.54350,	-2.56438,	-2.52587,	-2.39923,	-2.35927,	-2.44184,	-2.46152,	-2.36899,	-2.22463,	-2.10124,	-1.98345,	-1.96056,	-1.88181,	-1.66400,	-1.47735,	-1.21960,	-0.84692,	-0.57634,	-0.49049,	-0.36020,	-0.25163,	-0.25089,	-0.19184,	-0.13952,	0.07682,	0.31364,	0.54387,	0.66718,	0.67155,	0.63779,	0.44735,	0.36257,	0.46434,	0.53371,	0.45637,	0.27150,	0.07117,	-0.12932,	-0.19219,	-0.30244,	-0.55011,	-0.81486,	-0.90800,	-0.97295,	-1.04633,	-0.97793,	-0.98008,	-1.06973,	-1.17187,	-1.28413,	-1.43498,	-1.38489,	-1.20133,	-0.95412,	-0.67566,	-0.47246,	-0.26818,	-0.11945,	-0.09208,	-0.10688,	-0.20819,	-0.27040,	-0.38667,	-0.45342,	-0.46074,	-0.48570,	-0.48006,	-0.40344,	-0.24958,	-0.26843,	-0.35072,	-0.42714,	-0.45597,	-0.38227,	-0.12080,	0.16485,	0.44978,	0.69797,	0.74399,	0.68701,	0.63363,	0.54436,	0.37910,	0.30458,	0.44004,	0.46183,	0.46667,	0.31543,	0.10510,	-0.05458,	-0.21940,	-0.24640,	-0.22332,	-0.25995,	-0.56470,	-0.94470,	-1.21522,	-1.38554,	-1.47526,	-1.67179,	-1.91396,	-2.25449,	-2.47028,	-2.53256,	-2.57763,	-2.56510,	-2.44471,	-2.44955,	-2.58895,	-2.62528,	-2.66365,	-2.68069,	-2.58471,	-2.37769,	-2.28362,	-2.25563,	-2.17815,	-2.29632,	-2.45568,	-2.59392,	-2.64019,	-2.49175,	-2.26000,	-2.01762,	-1.86092,	-1.81488,	-1.93644,	-1.99921,	-1.89214,	-1.84379,	-1.86000,	-1.99262,	-2.03259,	-2.16615,	-2.29193,	-2.31021,	-2.23908,	-2.24178,	-2.17293,	-2.05948,	-2.02350,	-1.85973,	-1.70125,	-1.53282,	-1.21391,	-0.89508,	-0.72701,	-0.68230,	-0.58256,	-0.50025,	-0.37431,	-0.09734,	0.28463,	0.65802,	0.87015,	0.96475,	1.01708,	1.12697,	1.18782,	1.08707,	0.93569,	0.77284,	0.72713,	0.65857,	0.67966,	0.66938,	0.65115,	0.58097,	0.52230,	0.45684,	0.52314,	0.62278,	0.60660,	0.71623,	0.78947,	0.73044,	0.68428,	0.61674,	0.45235,	0.29287,	0.26797,	0.28387,	0.33044,	0.38286,	0.37563,	0.30737,	0.16946,	0.09019,	0.03761,	-0.05866,	-0.32615,	-0.64956,	-0.83472,	-0.93260,	-0.97532,	-1.06927,	-1.08083,	-1.29939,	-1.56689,	-1.71611,	-1.78718,	-1.83640
-1.20951,	-1.36627,	-1.50017,	-1.54557,	-1.44641,	-1.51310,	-1.72459,	-1.89869,	-2.01637,	-2.06722,	-2.15917,	-2.19438,	-2.45624,	-2.63131,	-2.85586,	-2.91488,	-2.86434,	-2.80806,	-2.69987,	-2.74530,	-2.68597,	-2.65318,	-2.63717,	-2.59623,	-2.69449,	-2.82634,	-2.98305,	-2.97911,	-3.07173,	-3.01601,	-2.87660,	-2.81519,	-2.71152,	-2.70894,	-2.64873,	-2.56940,	-2.45579,	-2.44233,	-2.61148,	-2.74054,	-2.84894,	-2.89184,	-3.04394,	-3.07160,	-3.15127,	-3.01602,	-2.85669,	-2.66683,	-2.57220,	-2.63418,	-2.59129,	-2.52609,	-2.24408,	-2.03924,	-2.00752,	-1.92296,	-1.81351,	-1.66312,	-1.61432,	-1.45248,	-1.33659,	-1.18566,	-1.04758,	-0.98719,	-0.89119,	-0.98561,	-1.14392,	-1.29556,	-1.19905,	-1.02185,	-0.98864,	-0.92813,	-1.03042,	-1.12454,	-1.29047,	-1.34620,	-1.38836,	-1.35428,	-1.44606,	-1.59920,	-1.77793,	-1.97930,	-2.04832,	-2.25415,	-2.48161,	-2.71220,	-2.97327,	-3.02506,	-3.03473,	-2.93190,	-2.82952,	-2.67049,	-2.59339,	-2.50837,	-2.35346,	-2.31842,	-2.25664,	-2.24377,	-2.25313,	-2.24655,	-2.10380,	-1.96667,	-2.10995,	-2.29699,	-2.47028,	-2.54818,	-2.56167,	-2.42962,	-2.33752,	-2.25588,	-2.22542,	-2.13423,	-1.96161,	-1.92258,	-1.86073,	-1.83455,	-1.67989,	-1.43578,	-1.35940,	-1.20078,	-0.97632,	-0.75676,	-0.64421,	-0.47058,	-0.33293,	-0.31427,	-0.24259,	-0.25823,	-0.04950,	0.22355,	0.44540,	0.59956,	0.65983,	0.68066,	0.47447,	0.33360,	0.41359,	0.43253,	0.31434,	0.16121,	0.01808,	-0.05827,	-0.11351,	-0.30705,	-0.52299,	-0.79702,	-0.88729,	-0.92465,	-0.98510,	-0.94608,	-1.09198,	-1.25991,	-1.38853,	-1.44839,	-1.47505,	-1.38701,	-1.23792,	-1.05075,	-0.78755,	-0.62368,	-0.40144,	-0.14268,	-0.08962,	-0.13236,	-0.21784,	-0.20691,	-0.26895,	-0.33356,	-0.33099,	-0.38505,	-0.44058,	-0.37932,	-0.23679,	-0.20677,	-0.24284,	-0.35070,	-0.26791,	-0.15870,	0.03200,	0.24500,	0.42312,	0.60808,	0.55632,	0.48897,	0.46824,	0.36695,	0.22329,	0.10937,	0.19848,	0.19859,	0.26489,	0.14695,	-0.07360,	-0.23884,	-0.49232,	-0.61519,	-0.60003,	-0.55157,	-0.73962,	-1.06565,	-1.29071,	-1.47391,	-1.66312,	-1.91735,	-2.15129,	-2.39712,	-2.46732,	-2.54215,	-2.54010,	-2.52909,	-2.50075,	-2.51457,	-2.62259,	-2.57087,	-2.59156,	-2.62034,	-2.53676,	-2.41698,	-2.33681,	-2.33792,	-2.27185,	-2.35509,	-2.43062,	-2.58236,	-2.66471,	-2.47492,	-2.25247,	-2.04605,	-1.90503,	-1.81575,	-1.86301,	-1.94387,	-1.86888,	-1.87198,	-1.94845,	-2.04781,	-1.97035,	-1.98181,	-1.98594,	-2.09929,	-2.09127,	-2.10891,	-2.09712,	-1.93424,	-1.85134,	-1.68841,	-1.64319,	-1.58744,	-1.29227,	-0.99495,	-0.71674,	-0.58595,	-0.47499,	-0.44680,	-0.33151,	-0.11266,	0.19481,	0.57913,	0.77810,	0.82949,	0.83323,	0.94841,	1.04551,	0.90398,	0.77535,	0.66284,	0.64189,	0.59802,	0.63458,	0.62781,	0.67459,	0.53285,	0.48431,	0.50574,	0.57307,	0.67238,	0.62273,	0.67045,	0.62995,	0.49204,	0.48165,	0.47084,	0.42421,	0.29734,	0.27686,	0.27324,	0.36565,	0.43745,	0.38799,	0.34369,	0.19815,	0.03982,	-0.13630,	-0.28668,	-0.51016,	-0.81656,	-0.92323,	-0.98073,	-1.07762,	-1.27065,	-1.37923,	-1.60348,	-1.71177,	-1.79592,	-1.80066,	-1.80128
-1.27689,	-1.59881,	-1.69599,	-1.68038,	-1.60159,	-1.61826,	-1.80441,	-2.06087,	-2.29681,	-2.44127,	-2.53607,	-2.42887,	-2.53139,	-2.66668,	-2.86324,	-2.94076,	-2.88853,	-2.84343,	-2.78199,	-2.65125,	-2.62152,	-2.70731,	-2.65610,	-2.67053,	-2.82474,	-2.86235,	-2.90682,	-2.92691,	-2.96911,	-2.87365,	-2.84532,	-2.79039,	-2.70586,	-2.72247,	-2.51286,	-2.30440,	-2.22351,	-2.23317,	-2.42263,	-2.60643,	-2.76862,	-2.81244,	-2.90524,	-2.85834,	-2.88158,	-2.75758,	-2.60712,	-2.45488,	-2.37142,	-2.44150,	-2.49333,	-2.33291,	-2.13982,	-2.12742,	-2.02506,	-1.87954,	-1.75172,	-1.49126,	-1.36740,	-1.29283,	-1.24136,	-1.08412,	-0.98376,	-0.87109,	-0.76912,	-0.96133,	-1.11752,	-1.24022,	-1.25547,	-1.12373,	-1.04745,	-0.93913,	-1.02743,	-1.16930,	-1.33727,	-1.33799,	-1.31593,	-1.27381,	-1.34231,	-1.46007,	-1.60764,	-1.78239,	-1.97130,	-2.11720,	-2.32037,	-2.64795,	-2.76622,	-2.69938,	-2.75159,	-2.65915,	-2.58823,	-2.55885,	-2.50287,	-2.29946,	-2.11552,	-2.05201,	-2.03685,	-2.22895,	-2.33432,	-2.29188,	-2.18137,	-1.99702,	-2.02338,	-2.20211,	-2.44066,	-2.57726,	-2.58718,	-2.38914,	-2.19985,	-2.09247,	-2.06532,	-1.99535,	-1.88005,	-1.85047,	-1.86255,	-1.74420,	-1.49685,	-1.37210,	-1.27887,	-1.10339,	-1.05530,	-0.92152,	-0.75385,	-0.59615,	-0.43709,	-0.30163,	-0.23724,	-0.25922,	-0.08169,	0.06622,	0.28273,	0.58291,	0.69034,	0.68718,	0.52813,	0.37019,	0.34093,	0.26655,	0.15187,	0.10053,	0.08344,	0.03245,	-0.09873,	-0.36511,	-0.60401,	-0.81160,	-0.89523,	-0.84983,	-0.83744,	-0.98755,	-1.21577,	-1.33288,	-1.49236,	-1.49565,	-1.37334,	-1.29919,	-1.23230,	-1.05153,	-0.86774,	-0.72726,	-0.46365,	-0.22218,	-0.13797,	-0.09650,	-0.17489,	-0.18934,	-0.17839,	-0.20869,	-0.26974,	-0.39028,	-0.46776,	-0.37807,	-0.18531,	-0.14808,	-0.19675,	-0.27749,	-0.14646,	0.03485,	0.17029,	0.32547,	0.47475,	0.43675,	0.32233,	0.34833,	0.30475,	0.17891,	0.09991,	-0.05895,	-0.09580,	-0.06007,	0.02123,	-0.04749,	-0.17909,	-0.42846,	-0.74909,	-0.83296,	-0.81994,	-0.81551,	-0.90661,	-1.13912,	-1.39934,	-1.64897,	-1.91537,	-2.16737,	-2.28069,	-2.42349,	-2.43396,	-2.45820,	-2.46124,	-2.45598,	-2.51969,	-2.56939,	-2.52175,	-2.49165,	-2.50185,	-2.42211,	-2.40168,	-2.42260,	-2.36563,	-2.39739,	-2.41007,	-2.36976,	-2.36171,	-2.53694,	-2.57779,	-2.44809,	-2.29341,	-2.02719,	-1.84682,	-1.81270,	-1.81641,	-1.87718,	-1.91225,	-2.01045,	-2.11685,	-2.14500,	-1.89297,	-1.79646,	-1.80903,	-1.96377,	-2.07210,	-2.12147,	-2.11877,	-1.98041,	-1.73808,	-1.65091,	-1.72254,	-1.61542,	-1.36986,	-1.13228,	-0.75353,	-0.49593,	-0.40571,	-0.33541,	-0.18803,	-0.04914,	0.24291,	0.52993,	0.62831,	0.73431,	0.77881,	0.80263,	0.85677,	0.71897,	0.57073,	0.46220,	0.48608,	0.51748,	0.65140,	0.64670,	0.58750,	0.41259,	0.35776,	0.45654,	0.58267,	0.60550,	0.63150,	0.53830,	0.30481,	0.24204,	0.29317,	0.31738,	0.37926,	0.31686,	0.23409,	0.27467,	0.44942,	0.49286,	0.47430,	0.37641,	0.10365,	-0.07438,	-0.26437,	-0.51434,	-0.73416,	-0.95274,	-1.01378,	-1.09532,	-1.24388,	-1.47694,	-1.60162,	-1.79469,	-1.89476,	-1.93944,	-1.91747,	-1.89880
-1.32931,	-1.62349,	-1.71292,	-1.78609,	-1.76088,	-1.84255,	-2.02216,	-2.25006,	-2.52214,	-2.62908,	-2.80029,	-2.79082,	-2.77243,	-2.83876,	-2.97610,	-2.94727,	-2.87944,	-2.85368,	-2.88544,	-2.78807,	-2.75242,	-2.74706,	-2.68227,	-2.73583,	-2.86274,	-2.87818,	-2.85272,	-2.82977,	-2.84209,	-2.83144,	-2.91409,	-2.84746,	-2.70151,	-2.51371,	-2.20212,	-2.08770,	-2.09134,	-2.21528,	-2.41381,	-2.55661,	-2.72429,	-2.62940,	-2.67559,	-2.73634,	-2.73614,	-2.57526,	-2.40492,	-2.21587,	-2.11980,	-2.16684,	-2.32241,	-2.29240,	-2.16687,	-2.02053,	-1.79169,	-1.66065,	-1.59215,	-1.39888,	-1.22527,	-1.06702,	-1.02601,	-0.98058,	-0.94031,	-0.80956,	-0.70382,	-0.81194,	-0.92280,	-1.11262,	-1.24696,	-1.28622,	-1.27843,	-1.11982,	-1.15892,	-1.19093,	-1.29168,	-1.34401,	-1.31849,	-1.28690,	-1.34404,	-1.35359,	-1.44659,	-1.58891,	-1.85723,	-2.04620,	-2.19688,	-2.35574,	-2.34384,	-2.32511,	-2.44529,	-2.47341,	-2.46982,	-2.38956,	-2.23509,	-1.99292,	-1.86803,	-1.86147,	-1.91535,	-2.12632,	-2.21724,	-2.25389,	-2.23784,	-2.11495,	-2.11609,	-2.23821,	-2.47569,	-2.50603,	-2.43233,	-2.31977,	-2.13503,	-2.01276,	-2.01343,	-1.93529,	-1.80938,	-1.68079,	-1.68098,	-1.63510,	-1.45730,	-1.28879,	-1.08287,	-0.92976,	-1.04343,	-1.07531,	-0.91494,	-0.67383,	-0.41314,	-0.25694,	-0.24627,	-0.24632,	-0.10069,	0.01695,	0.25981,	0.54317,	0.62133,	0.54670,	0.40088,	0.32120,	0.23641,	0.14055,	0.09172,	0.02170,	-0.00505,	-0.05317,	-0.22379,	-0.42315,	-0.56134,	-0.65261,	-0.74285,	-0.81849,	-0.86777,	-1.02837,	-1.18892,	-1.25754,	-1.40465,	-1.39168,	-1.26525,	-1.18727,	-1.10856,	-0.99297,	-0.92451,	-0.80469,	-0.53623,	-0.24609,	-0.04183,	-0.02116,	-0.18762,	-0.24702,	-0.23761,	-0.20633,	-0.25244,	-0.35323,	-0.35951,	-0.34766,	-0.20630,	-0.07375,	-0.06890,	-0.10504,	0.04453,	0.25904,	0.39310,	0.42964,	0.40587,	0.28285,	0.26766,	0.31879,	0.20753,	0.00842,	-0.09869,	-0.20851,	-0.23027,	-0.26248,	-0.32075,	-0.37943,	-0.44310,	-0.68481,	-0.86902,	-0.93185,	-1.06267,	-1.18223,	-1.30288,	-1.43313,	-1.66563,	-1.92836,	-2.09666,	-2.30357,	-2.38725,	-2.40590,	-2.39284,	-2.41886,	-2.37628,	-2.38304,	-2.47731,	-2.56373,	-2.50022,	-2.39008,	-2.26244,	-2.18057,	-2.28739,	-2.44895,	-2.48502,	-2.50828,	-2.46253,	-2.37199,	-2.41749,	-2.61889,	-2.64244,	-2.50450,	-2.23885,	-1.95748,	-1.87131,	-1.92050,	-2.00070,	-2.05186,	-2.05954,	-2.10871,	-2.06091,	-2.08874,	-1.94191,	-1.80008,	-1.77593,	-1.92329,	-2.06460,	-2.13999,	-2.10236,	-2.01167,	-1.81751,	-1.74497,	-1.68161,	-1.50179,	-1.35603,	-1.22938,	-0.92225,	-0.56391,	-0.33216,	-0.22472,	-0.11695,	-0.02048,	0.19244,	0.35931,	0.52141,	0.67568,	0.60575,	0.50645,	0.46284,	0.40789,	0.37807,	0.32972,	0.47723,	0.50158,	0.53108,	0.48084,	0.37477,	0.23983,	0.29687,	0.47408,	0.61830,	0.52367,	0.41106,	0.22759,	0.09106,	0.10862,	0.13803,	0.15659,	0.18873,	0.17240,	0.18986,	0.31239,	0.45848,	0.46423,	0.44415,	0.28218,	0.03951,	-0.14275,	-0.41803,	-0.69757,	-0.96057,	-1.15684,	-1.18441,	-1.26748,	-1.28659,	-1.50284,	-1.80989,	-2.03277,	-2.10208,	-2.10630,	-2.00601,	-1.95939
-1.38178,	-1.58578,	-1.68658,	-1.86112,	-1.90485,	-2.04654,	-2.26452,	-2.44366,	-2.61618,	-2.71843,	-2.97343,	-3.09509,	-3.06984,	-3.02574,	-3.06696,	-3.00716,	-2.94930,	-2.99646,	-2.97224,	-2.86738,	-2.87666,	-2.86555,	-2.86600,	-2.97348,	-2.97512,	-2.95060,	-2.92877,	-2.86820,	-2.88009,	-2.93723,	-2.92253,	-2.86053,	-2.61136,	-2.30839,	-2.05472,	-2.10435,	-2.15653,	-2.25131,	-2.36596,	-2.45421,	-2.56324,	-2.45717,	-2.54704,	-2.68262,	-2.68938,	-2.46454,	-2.24738,	-2.11609,	-2.03209,	-2.10562,	-2.20298,	-2.19848,	-2.14310,	-1.90134,	-1.62479,	-1.59268,	-1.56752,	-1.45451,	-1.27120,	-0.95766,	-0.82411,	-0.84041,	-0.73834,	-0.69347,	-0.63234,	-0.70375,	-0.81975,	-1.03095,	-1.16518,	-1.27213,	-1.36684,	-1.29721,	-1.31190,	-1.29662,	-1.36198,	-1.40009,	-1.37406,	-1.31543,	-1.31524,	-1.32396,	-1.42464,	-1.63060,	-1.82944,	-1.89969,	-2.01156,	-2.07527,	-2.07783,	-2.24998,	-2.37673,	-2.42736,	-2.42494,	-2.19033,	-1.92399,	-1.75039,	-1.66450,	-1.79322,	-1.90358,	-2.01062,	-2.02697,	-2.13057,	-2.20470,	-2.17438,	-2.24621,	-2.38724,	-2.57429,	-2.54052,	-2.45062,	-2.38226,	-2.19308,	-2.00315,	-1.94832,	-1.91760,	-1.81328,	-1.65697,	-1.53201,	-1.41593,	-1.37411,	-1.24490,	-1.00563,	-0.92307,	-1.01412,	-1.05061,	-0.92665,	-0.62653,	-0.32203,	-0.25038,	-0.19866,	-0.13747,	-0.00396,	0.13100,	0.30075,	0.44916,	0.45253,	0.36226,	0.25020,	0.22384,	0.15521,	0.05300,	-0.00970,	-0.09612,	-0.15088,	-0.18789,	-0.28927,	-0.41940,	-0.51256,	-0.59821,	-0.69497,	-0.78944,	-0.92396,	-1.09411,	-1.17422,	-1.23280,	-1.31967,	-1.26411,	-1.24139,	-1.17035,	-1.02042,	-0.92152,	-0.78548,	-0.64245,	-0.48031,	-0.20282,	-0.04128,	-0.09592,	-0.34456,	-0.41898,	-0.40844,	-0.37019,	-0.34199,	-0.36081,	-0.36044,	-0.39786,	-0.27422,	-0.02951,	0.11639,	0.08433,	0.09811,	0.21684,	0.37451,	0.51687,	0.45777,	0.30364,	0.31164,	0.25380,	0.03921,	-0.17176,	-0.31597,	-0.32458,	-0.23760,	-0.38651,	-0.56951,	-0.65266,	-0.80777,	-0.98443,	-1.07461,	-1.10854,	-1.33549,	-1.52533,	-1.67401,	-1.79614,	-2.01053,	-2.24489,	-2.37287,	-2.49363,	-2.52076,	-2.45288,	-2.39403,	-2.45977,	-2.47107,	-2.50590,	-2.54667,	-2.45759,	-2.36108,	-2.27418,	-2.18433,	-2.22332,	-2.42555,	-2.51582,	-2.53160,	-2.52808,	-2.40874,	-2.40534,	-2.54433,	-2.69043,	-2.81887,	-2.65769,	-2.37068,	-2.12804,	-2.10695,	-2.16413,	-2.26881,	-2.34672,	-2.30400,	-2.21735,	-2.08681,	-2.14476,	-2.14052,	-2.01329,	-1.87215,	-1.91360,	-2.04982,	-2.12325,	-2.08248,	-1.90916,	-1.75925,	-1.74465,	-1.61072,	-1.39281,	-1.32655,	-1.22389,	-1.02105,	-0.68408,	-0.33153,	-0.22716,	-0.15101,	0.03793,	0.08732,	0.17502,	0.33350,	0.46255,	0.28113,	0.12113,	0.07108,	0.09565,	0.16022,	0.20703,	0.34173,	0.29944,	0.26160,	0.20713,	0.22204,	0.21442,	0.26942,	0.38641,	0.37183,	0.27902,	0.15173,	-0.01934,	-0.02596,	0.00657,	-0.07502,	-0.06044,	-0.06341,	-0.05767,	0.08223,	0.23264,	0.29712,	0.37436,	0.28643,	0.10308,	-0.13223,	-0.35993,	-0.68436,	-0.91629,	-1.14717,	-1.38122,	-1.48969,	-1.54223,	-1.48129,	-1.63482,	-1.95679,	-2.17279,	-2.16795,	-2.12721,	-2.09860,	-2.09245
-1.37341,	-1.59554,	-1.67211,	-1.78006,	-1.88470,	-2.08771,	-2.34148,	-2.52863,	-2.63048,	-2.78511,	-3.04204,	-3.10097,	-3.12113,	-3.18969,	-3.19186,	-3.07073,	-3.01501,	-3.07722,	-2.99625,	-2.93577,	-3.01352,	-3.08710,	-3.13462,	-3.18097,	-3.13088,	-3.05938,	-3.03582,	-3.09314,	-3.08816,	-3.04386,	-2.88233,	-2.71751,	-2.43000,	-2.24085,	-2.06339,	-2.07908,	-2.13620,	-2.17754,	-2.19325,	-2.25484,	-2.31729,	-2.29470,	-2.41336,	-2.44877,	-2.46066,	-2.39744,	-2.20770,	-2.04588,	-1.94717,	-2.00653,	-2.03905,	-2.08182,	-2.11994,	-1.96394,	-1.70121,	-1.58530,	-1.52864,	-1.40363,	-1.21787,	-0.99467,	-0.81781,	-0.73766,	-0.55716,	-0.48779,	-0.45225,	-0.64156,	-0.79037,	-0.86872,	-0.92327,	-1.02783,	-1.16175,	-1.20329,	-1.26306,	-1.33522,	-1.43402,	-1.37285,	-1.31517,	-1.36545,	-1.35506,	-1.28950,	-1.36363,	-1.58639,	-1.73981,	-1.81973,	-1.97633,	-2.08853,	-2.11900,	-2.23749,	-2.30628,	-2.31188,	-2.26671,	-2.09912,	-1.87252,	-1.68553,	-1.56756,	-1.66286,	-1.72703,	-1.82264,	-1.81270,	-1.84843,	-1.94620,	-2.01649,	-2.16358,	-2.35302,	-2.52967,	-2.55870,	-2.51504,	-2.35761,	-2.09334,	-1.96664,	-1.92582,	-1.85242,	-1.75358,	-1.63109,	-1.43899,	-1.29206,	-1.31689,	-1.25560,	-1.04048,	-0.88093,	-0.84700,	-0.82494,	-0.72449,	-0.55671,	-0.38469,	-0.31985,	-0.18114,	-0.01037,	0.20004,	0.28443,	0.33809,	0.47241,	0.47201,	0.36547,	0.26705,	0.23820,	0.17356,	0.04212,	-0.07407,	-0.09274,	-0.09224,	-0.22628,	-0.39602,	-0.47485,	-0.52160,	-0.61780,	-0.70399,	-0.81296,	-1.03522,	-1.25071,	-1.29513,	-1.23782,	-1.20314,	-1.10557,	-1.09850,	-1.08666,	-0.99913,	-0.80819,	-0.52292,	-0.32064,	-0.17626,	-0.02339,	-0.04218,	-0.10212,	-0.32685,	-0.44041,	-0.43255,	-0.39501,	-0.32021,	-0.29785,	-0.34760,	-0.34712,	-0.17469,	-0.00634,	0.07911,	0.09338,	0.10574,	0.16763,	0.31948,	0.50681,	0.43280,	0.24708,	0.20508,	0.13978,	-0.04610,	-0.25953,	-0.41097,	-0.44084,	-0.44992,	-0.61517,	-0.76864,	-0.84220,	-0.99247,	-1.16297,	-1.31697,	-1.28535,	-1.42474,	-1.62741,	-1.79079,	-1.94233,	-2.18968,	-2.44315,	-2.66660,	-2.74548,	-2.64916,	-2.59067,	-2.61326,	-2.63536,	-2.59739,	-2.61929,	-2.60217,	-2.43488,	-2.39917,	-2.40220,	-2.41118,	-2.45498,	-2.55173,	-2.52985,	-2.46002,	-2.47036,	-2.49163,	-2.53357,	-2.63011,	-2.69819,	-2.81641,	-2.71248,	-2.58943,	-2.37503,	-2.26313,	-2.29194,	-2.38397,	-2.47478,	-2.46818,	-2.36637,	-2.30071,	-2.34801,	-2.27405,	-2.17622,	-2.12262,	-2.06223,	-2.04435,	-2.05302,	-1.98802,	-1.77036,	-1.70771,	-1.76656,	-1.67947,	-1.41778,	-1.23735,	-1.11615,	-0.93842,	-0.66976,	-0.47506,	-0.38973,	-0.25378,	0.00604,	0.06148,	0.11362,	0.12703,	0.22636,	0.12691,	-0.02840,	-0.10077,	-0.07502,	-0.02205,	0.05025,	0.08943,	0.02437,	0.08137,	0.05510,	0.01861,	0.07021,	0.16144,	0.19864,	0.06147,	-0.03578,	-0.19513,	-0.32722,	-0.29605,	-0.22798,	-0.20340,	-0.15003,	-0.11836,	-0.09297,	-0.09201,	-0.00418,	0.08517,	0.22791,	0.18856,	0.01708,	-0.34139,	-0.62073,	-0.86851,	-1.06870,	-1.28137,	-1.52227,	-1.69517,	-1.74678,	-1.75498,	-1.87417,	-2.01653,	-2.16870,	-2.26840,	-2.25001,	-2.21608,	-2.22829
-1.51898,	-1.63016,	-1.73840,	-1.80905,	-1.95954,	-2.13827,	-2.42925,	-2.59655,	-2.69091,	-2.78538,	-2.98624,	-3.10463,	-3.14980,	-3.26248,	-3.25400,	-3.06748,	-3.03624,	-3.02111,	-3.03444,	-3.01856,	-3.05124,	-3.13613,	-3.26416,	-3.39085,	-3.36792,	-3.22408,	-3.19644,	-3.25001,	-3.14919,	-2.94738,	-2.81960,	-2.62775,	-2.33411,	-2.14522,	-2.08080,	-2.08278,	-2.14837,	-2.06941,	-2.03454,	-2.05206,	-2.11593,	-2.06173,	-2.09092,	-2.14428,	-2.17447,	-2.20931,	-2.09953,	-1.90031,	-1.83887,	-1.79696,	-1.87318,	-1.95939,	-1.98326,	-1.88509,	-1.71259,	-1.60994,	-1.50166,	-1.27918,	-1.13475,	-1.03454,	-0.85052,	-0.63437,	-0.50524,	-0.42159,	-0.36427,	-0.50989,	-0.71584,	-0.74018,	-0.75271,	-0.78351,	-0.94321,	-1.03473,	-1.16532,	-1.26570,	-1.32835,	-1.33626,	-1.33493,	-1.42867,	-1.43745,	-1.28442,	-1.33311,	-1.42955,	-1.62333,	-1.81863,	-1.97352,	-2.09639,	-2.17501,	-2.27136,	-2.30012,	-2.20395,	-2.17296,	-2.12433,	-1.93431,	-1.66664,	-1.57427,	-1.61813,	-1.56342,	-1.50483,	-1.50723,	-1.57760,	-1.73667,	-1.83198,	-2.00139,	-2.18689,	-2.36658,	-2.43744,	-2.37263,	-2.26050,	-2.04844,	-1.93621,	-1.88917,	-1.72469,	-1.64568,	-1.48974,	-1.31985,	-1.21267,	-1.13235,	-1.02947,	-0.90074,	-0.81578,	-0.76873,	-0.65440,	-0.57769,	-0.54117,	-0.45618,	-0.33172,	-0.20595,	-0.03167,	0.27244,	0.41849,	0.40520,	0.47152,	0.46091,	0.38998,	0.33380,	0.30848,	0.22383,	0.07443,	-0.00829,	-0.07003,	-0.12811,	-0.28599,	-0.50127,	-0.55661,	-0.60180,	-0.64973,	-0.71751,	-0.88395,	-1.05865,	-1.22324,	-1.30790,	-1.28044,	-1.22199,	-1.04805,	-0.98052,	-0.97365,	-0.87038,	-0.53945,	-0.22880,	-0.11412,	0.03635,	0.16320,	0.06683,	-0.06912,	-0.28551,	-0.42031,	-0.39726,	-0.37799,	-0.29515,	-0.26668,	-0.23841,	-0.23966,	-0.17537,	-0.08446,	-0.04407,	0.05413,	0.14184,	0.21719,	0.34053,	0.38315,	0.35223,	0.24280,	0.16079,	0.04453,	-0.16420,	-0.35379,	-0.49346,	-0.59657,	-0.67492,	-0.79744,	-0.92794,	-1.08030,	-1.15257,	-1.23824,	-1.34689,	-1.35063,	-1.45359,	-1.66803,	-1.82559,	-2.04089,	-2.30180,	-2.60281,	-2.82474,	-2.95103,	-2.94556,	-2.89484,	-2.89604,	-2.80043,	-2.66169,	-2.64897,	-2.59797,	-2.56743,	-2.55576,	-2.55471,	-2.60477,	-2.67186,	-2.72878,	-2.60668,	-2.45390,	-2.51923,	-2.62093,	-2.61483,	-2.61072,	-2.70968,	-2.76439,	-2.69316,	-2.63908,	-2.57028,	-2.46477,	-2.48452,	-2.48112,	-2.57941,	-2.59369,	-2.56220,	-2.47084,	-2.46188,	-2.42398,	-2.34733,	-2.34611,	-2.24676,	-2.07148,	-1.99740,	-1.82119,	-1.68217,	-1.64601,	-1.67479,	-1.62122,	-1.41221,	-1.24653,	-1.12879,	-0.91970,	-0.73103,	-0.63359,	-0.51738,	-0.28991,	-0.11537,	-0.03938,	0.01441,	0.01343,	0.01302,	-0.03057,	-0.15993,	-0.19078,	-0.23433,	-0.21423,	-0.20511,	-0.14078,	-0.14030,	-0.13973,	-0.16987,	-0.23988,	-0.18601,	-0.03795,	-0.07851,	-0.18441,	-0.37437,	-0.53401,	-0.53911,	-0.46804,	-0.43428,	-0.39496,	-0.27940,	-0.11075,	-0.07927,	-0.18271,	-0.15672,	-0.03035,	-0.00494,	-0.05548,	-0.19298,	-0.49321,	-0.83620,	-1.07268,	-1.28648,	-1.41848,	-1.63287,	-1.78796,	-1.90869,	-1.97170,	-2.06015,	-2.20417,	-2.32901,	-2.44236,	-2.42632,	-2.32404,	-2.36546
-1.85230,	-1.91173,	-2.00110,	-1.98257,	-2.13422,	-2.34276,	-2.64406,	-2.73893,	-2.83826,	-2.91155,	-3.05347,	-3.11575,	-3.12875,	-3.17453,	-3.17840,	-3.11398,	-3.15602,	-3.15463,	-3.25042,	-3.21542,	-3.17814,	-3.20156,	-3.29111,	-3.42476,	-3.49618,	-3.47591,	-3.44472,	-3.21963,	-2.96492,	-2.73243,	-2.68647,	-2.59687,	-2.36045,	-2.23565,	-2.23369,	-2.13787,	-2.14900,	-2.02554,	-2.01328,	-1.97185,	-2.02235,	-1.93152,	-1.82012,	-1.75600,	-1.72600,	-1.71573,	-1.70765,	-1.69749,	-1.77022,	-1.74077,	-1.81525,	-1.81799,	-1.78934,	-1.72726,	-1.62059,	-1.47126,	-1.28489,	-1.12275,	-1.06503,	-0.94385,	-0.79122,	-0.59928,	-0.52006,	-0.43062,	-0.33800,	-0.45939,	-0.69908,	-0.67260,	-0.66824,	-0.71154,	-0.90623,	-0.96695,	-1.09636,	-1.20794,	-1.24107,	-1.24332,	-1.29161,	-1.35697,	-1.40299,	-1.35618,	-1.39605,	-1.39249,	-1.54863,	-1.75261,	-1.94713,	-2.13656,	-2.25679,	-2.24133,	-2.19290,	-2.12749,	-2.18859,	-2.12862,	-1.91419,	-1.70478,	-1.63276,	-1.58504,	-1.39605,	-1.23612,	-1.32474,	-1.44651,	-1.65145,	-1.78717,	-1.93063,	-2.01527,	-2.10093,	-2.17123,	-2.13604,	-2.05066,	-1.91423,	-1.76590,	-1.65055,	-1.51429,	-1.48691,	-1.35499,	-1.23017,	-1.05822,	-0.82802,	-0.71863,	-0.70098,	-0.72868,	-0.74118,	-0.67661,	-0.66417,	-0.56390,	-0.40826,	-0.32140,	-0.27358,	-0.14485,	0.17146,	0.33543,	0.26242,	0.31158,	0.34804,	0.30201,	0.27160,	0.29689,	0.22409,	0.05375,	-0.06498,	-0.14605,	-0.18171,	-0.25434,	-0.39156,	-0.54457,	-0.72741,	-0.82259,	-0.89444,	-0.96132,	-0.99800,	-1.09958,	-1.24329,	-1.26090,	-1.18338,	-1.04964,	-0.95708,	-0.76539,	-0.44518,	-0.09976,	0.04500,	0.01169,	0.09867,	0.20790,	0.09604,	-0.04008,	-0.15687,	-0.28704,	-0.32433,	-0.33589,	-0.26222,	-0.24256,	-0.15135,	-0.10051,	-0.04552,	0.01714,	0.07598,	0.18680,	0.25624,	0.28371,	0.29200,	0.18633,	0.17793,	0.12942,	0.05177,	-0.03693,	-0.20698,	-0.44679,	-0.68982,	-0.80744,	-0.79098,	-0.93225,	-1.13727,	-1.33327,	-1.33983,	-1.33137,	-1.39558,	-1.41937,	-1.49751,	-1.75367,	-2.01431,	-2.27722,	-2.45987,	-2.74354,	-2.93843,	-3.11694,	-3.17437,	-3.14887,	-3.04318,	-2.84536,	-2.72616,	-2.70586,	-2.73992,	-2.83830,	-2.80817,	-2.82711,	-2.85499,	-2.85275,	-2.80423,	-2.69335,	-2.69176,	-2.79392,	-2.76152,	-2.69076,	-2.64639,	-2.73140,	-2.70720,	-2.63863,	-2.69590,	-2.78508,	-2.72831,	-2.74645,	-2.69543,	-2.74668,	-2.68398,	-2.69559,	-2.60573,	-2.50667,	-2.38200,	-2.32666,	-2.32668,	-2.31746,	-2.22977,	-2.10410,	-1.88159,	-1.74521,	-1.63312,	-1.64359,	-1.62631,	-1.48096,	-1.32969,	-1.26658,	-1.17376,	-1.00896,	-0.73371,	-0.54806,	-0.33994,	-0.25162,	-0.21568,	-0.17673,	-0.25031,	-0.31947,	-0.24473,	-0.27248,	-0.27609,	-0.39961,	-0.40566,	-0.49651,	-0.43495,	-0.34306,	-0.28661,	-0.30172,	-0.36539,	-0.36709,	-0.35238,	-0.48102,	-0.56262,	-0.73757,	-0.76482,	-0.70766,	-0.69509,	-0.71247,	-0.62889,	-0.43495,	-0.23972,	-0.17895,	-0.10259,	-0.08019,	-0.09216,	-0.25100,	-0.41323,	-0.52047,	-0.74663,	-1.07349,	-1.23276,	-1.43368,	-1.55238,	-1.70789,	-1.76478,	-1.96841,	-2.15649,	-2.33590,	-2.46128,	-2.52328,	-2.53139,	-2.46437,	-2.43673,	-2.53468
-2.16166,	-2.25948,	-2.21806,	-2.18610,	-2.31023,	-2.57407,	-2.83874,	-2.93382,	-2.97652,	-2.99814,	-3.17301,	-3.21328,	-3.18592,	-3.28857,	-3.33289,	-3.28250,	-3.29996,	-3.42577,	-3.50343,	-3.48008,	-3.37291,	-3.24777,	-3.27299,	-3.34668,	-3.42379,	-3.49101,	-3.42815,	-3.15544,	-2.81739,	-2.64155,	-2.54455,	-2.40868,	-2.32590,	-2.36622,	-2.29861,	-2.16881,	-2.09599,	-1.97557,	-1.95214,	-1.90279,	-1.86772,	-1.68211,	-1.54219,	-1.42270,	-1.28712,	-1.27621,	-1.33618,	-1.39667,	-1.45503,	-1.53706,	-1.56053,	-1.54952,	-1.50592,	-1.37438,	-1.32233,	-1.17271,	-0.92960,	-0.84890,	-0.78016,	-0.72683,	-0.63844,	-0.56279,	-0.47218,	-0.26129,	-0.24073,	-0.48901,	-0.63602,	-0.60775,	-0.60262,	-0.69649,	-0.89083,	-0.98278,	-1.08452,	-1.12436,	-1.20705,	-1.26259,	-1.30604,	-1.42208,	-1.51889,	-1.46880,	-1.36041,	-1.37249,	-1.43574,	-1.61009,	-1.86552,	-2.04142,	-2.24263,	-2.23271,	-2.10026,	-2.05359,	-2.06559,	-2.02068,	-1.83879,	-1.75646,	-1.68240,	-1.42854,	-1.20586,	-1.15488,	-1.22905,	-1.36753,	-1.58278,	-1.74567,	-1.83615,	-1.86313,	-1.83146,	-1.74529,	-1.75059,	-1.74782,	-1.61486,	-1.48100,	-1.36715,	-1.22124,	-1.08569,	-1.02311,	-0.94561,	-0.74983,	-0.53093,	-0.39927,	-0.45635,	-0.61446,	-0.64951,	-0.64738,	-0.62372,	-0.50115,	-0.37758,	-0.38155,	-0.39249,	-0.17104,	0.08450,	0.08563,	0.03668,	0.09759,	0.13640,	0.10990,	0.10951,	0.16721,	0.10506,	0.02586,	-0.14158,	-0.28774,	-0.26446,	-0.30608,	-0.41244,	-0.56536,	-0.69729,	-0.86464,	-1.02421,	-1.01684,	-1.01331,	-0.97957,	-1.06716,	-1.12224,	-0.99339,	-0.89965,	-0.73805,	-0.41343,	-0.04361,	0.22727,	0.17928,	0.16692,	0.18509,	0.11329,	0.03250,	-0.01949,	-0.04915,	-0.08080,	-0.12653,	-0.14452,	-0.08727,	0.03501,	0.14764,	0.14989,	0.23525,	0.27602,	0.26342,	0.37005,	0.51237,	0.48371,	0.33052,	0.15886,	0.06854,	0.08523,	0.06345,	-0.05117,	-0.18315,	-0.46548,	-0.74547,	-0.86289,	-0.90980,	-1.08872,	-1.39791,	-1.49958,	-1.44841,	-1.52344,	-1.56476,	-1.52313,	-1.64495,	-1.90776,	-2.24437,	-2.48572,	-2.63590,	-2.80611,	-2.93563,	-3.19094,	-3.27344,	-3.28257,	-3.25387,	-3.03287,	-2.81824,	-2.72552,	-2.87304,	-2.97832,	-3.01707,	-3.04673,	-3.00047,	-2.98579,	-2.86478,	-2.79884,	-2.92477,	-3.00715,	-2.99567,	-2.89191,	-2.88661,	-2.83575,	-2.65440,	-2.64845,	-2.79054,	-2.86473,	-2.87384,	-2.83772,	-2.77443,	-2.74572,	-2.64671,	-2.58749,	-2.46816,	-2.40112,	-2.25093,	-2.20482,	-2.29823,	-2.37515,	-2.27407,	-2.05907,	-1.93531,	-1.76148,	-1.69263,	-1.70964,	-1.65075,	-1.60375,	-1.49228,	-1.45695,	-1.44640,	-1.23591,	-0.94199,	-0.70858,	-0.59066,	-0.46802,	-0.37320,	-0.45589,	-0.64473,	-0.60940,	-0.48127,	-0.38401,	-0.34527,	-0.43965,	-0.50990,	-0.64843,	-0.61837,	-0.59344,	-0.53091,	-0.47152,	-0.57158,	-0.61274,	-0.60792,	-0.69459,	-0.86437,	-0.95731,	-0.94699,	-0.91137,	-0.89491,	-0.97070,	-0.88152,	-0.61918,	-0.42562,	-0.26972,	-0.11722,	-0.06027,	-0.23591,	-0.45270,	-0.55898,	-0.71003,	-0.97916,	-1.13789,	-1.22757,	-1.37046,	-1.50136,	-1.59273,	-1.65791,	-1.89925,	-2.11608,	-2.45114,	-2.62582,	-2.60588,	-2.61584,	-2.55443,	-2.53406,	-2.55731
-2.37807,	-2.31492,	-2.18967,	-2.21695,	-2.35414,	-2.63056,	-2.87685,	-3.00859,	-3.01892,	-3.07964,	-3.28942,	-3.36067,	-3.34182,	-3.45209,	-3.54955,	-3.59088,	-3.55803,	-3.60280,	-3.62340,	-3.56027,	-3.41669,	-3.32653,	-3.33471,	-3.35157,	-3.37552,	-3.45197,	-3.40163,	-3.26112,	-2.92208,	-2.64206,	-2.45084,	-2.34472,	-2.34921,	-2.32475,	-2.21358,	-2.13928,	-2.02013,	-1.83217,	-1.72111,	-1.64765,	-1.54492,	-1.39232,	-1.29516,	-1.18382,	-0.99641,	-0.92511,	-0.98931,	-1.13992,	-1.13587,	-1.10230,	-1.07517,	-1.07737,	-1.05627,	-1.00814,	-1.02284,	-0.91816,	-0.69142,	-0.66410,	-0.57241,	-0.59767,	-0.51346,	-0.34948,	-0.22271,	-0.07430,	-0.16677,	-0.35964,	-0.39904,	-0.40950,	-0.41594,	-0.51352,	-0.70961,	-0.89191,	-1.03026,	-1.12004,	-1.27290,	-1.37474,	-1.39723,	-1.47835,	-1.55421,	-1.53720,	-1.35768,	-1.26596,	-1.24264,	-1.36468,	-1.61180,	-1.86006,	-2.18243,	-2.26813,	-2.11956,	-2.06402,	-1.98158,	-1.96199,	-1.83528,	-1.72080,	-1.63133,	-1.40082,	-1.24236,	-1.12341,	-1.05082,	-1.17569,	-1.37682,	-1.52202,	-1.58638,	-1.62251,	-1.55178,	-1.42294,	-1.45444,	-1.48782,	-1.31252,	-1.11326,	-0.98762,	-0.92147,	-0.76627,	-0.62737,	-0.52288,	-0.35509,	-0.21337,	-0.19362,	-0.34843,	-0.56627,	-0.57069,	-0.58522,	-0.56042,	-0.50779,	-0.48541,	-0.45119,	-0.40656,	-0.20073,	-0.05346,	-0.05449,	-0.00161,	0.00146,	-0.03335,	-0.04835,	-0.02108,	0.03378,	-0.03277,	-0.09844,	-0.30926,	-0.47947,	-0.44355,	-0.45845,	-0.52695,	-0.69485,	-0.79136,	-0.86611,	-1.00615,	-0.99022,	-0.95558,	-0.87179,	-0.90693,	-0.93000,	-0.75541,	-0.67741,	-0.51465,	-0.21210,	0.08049,	0.38108,	0.37361,	0.34368,	0.23387,	0.10145,	0.13593,	0.11872,	0.11306,	0.18981,	0.21244,	0.20422,	0.26754,	0.43203,	0.47745,	0.41140,	0.48070,	0.52929,	0.50664,	0.53297,	0.61135,	0.61915,	0.49806,	0.33365,	0.23714,	0.23535,	0.13472,	-0.04699,	-0.20337,	-0.51426,	-0.80371,	-0.94154,	-1.09320,	-1.23505,	-1.47488,	-1.58590,	-1.64701,	-1.74933,	-1.65393,	-1.58719,	-1.77461,	-2.02530,	-2.33288,	-2.53989,	-2.71832,	-2.87172,	-3.03748,	-3.30839,	-3.38081,	-3.37624,	-3.39651,	-3.26014,	-3.07687,	-2.85532,	-2.85385,	-2.89514,	-2.95507,	-3.03728,	-3.10038,	-3.13715,	-3.01947,	-2.97221,	-3.12908,	-3.21000,	-3.30705,	-3.19513,	-3.10722,	-3.00641,	-2.85467,	-2.83096,	-2.80818,	-2.80678,	-2.82957,	-2.72620,	-2.62879,	-2.57147,	-2.50099,	-2.41432,	-2.35344,	-2.34791,	-2.23954,	-2.18027,	-2.25159,	-2.34504,	-2.27568,	-1.98721,	-1.81212,	-1.65675,	-1.65754,	-1.71819,	-1.74860,	-1.76780,	-1.68900,	-1.66082,	-1.68833,	-1.48788,	-1.30201,	-1.04566,	-0.83439,	-0.67419,	-0.65386,	-0.80706,	-0.86909,	-0.72700,	-0.63192,	-0.49172,	-0.39463,	-0.42824,	-0.54684,	-0.72761,	-0.85894,	-0.96006,	-0.93552,	-0.79551,	-0.78429,	-0.80196,	-0.85803,	-0.89892,	-0.99617,	-1.03581,	-1.01242,	-0.98024,	-1.03484,	-1.15463,	-1.09946,	-0.85299,	-0.70307,	-0.52170,	-0.42583,	-0.33588,	-0.41746,	-0.58533,	-0.70080,	-0.86642,	-0.99607,	-1.00200,	-1.08484,	-1.19281,	-1.29454,	-1.37096,	-1.51857,	-1.79074,	-2.08036,	-2.48291,	-2.67307,	-2.61009,	-2.58889,	-2.55985,	-2.64814,	-2.63405
-2.47410,	-2.34306,	-2.30466,	-2.29407,	-2.43223,	-2.63422,	-2.88934,	-3.07697,	-3.05854,	-3.15462,	-3.33393,	-3.38507,	-3.49789,	-3.64986,	-3.72355,	-3.81919,	-3.74963,	-3.73642,	-3.68819,	-3.59236,	-3.53259,	-3.49018,	-3.44395,	-3.39938,	-3.41438,	-3.46802,	-3.41632,	-3.27279,	-3.05380,	-2.72104,	-2.51000,	-2.43050,	-2.31510,	-2.20238,	-2.22917,	-2.15588,	-2.02662,	-1.70816,	-1.46103,	-1.34902,	-1.16754,	-1.04148,	-0.95257,	-0.78025,	-0.64302,	-0.57876,	-0.56104,	-0.74000,	-0.72888,	-0.69294,	-0.69559,	-0.71569,	-0.77317,	-0.80455,	-0.80916,	-0.71542,	-0.55769,	-0.54410,	-0.45081,	-0.40588,	-0.38238,	-0.17534,	-0.08235,	-0.05912,	-0.04756,	-0.09383,	-0.21693,	-0.23466,	-0.27823,	-0.35692,	-0.54669,	-0.85249,	-1.04587,	-1.19897,	-1.38167,	-1.38714,	-1.37160,	-1.42640,	-1.38730,	-1.39693,	-1.29182,	-1.23326,	-1.22800,	-1.29080,	-1.52729,	-1.80950,	-2.10824,	-2.21066,	-2.14537,	-2.10969,	-1.95158,	-1.79921,	-1.73434,	-1.63469,	-1.62001,	-1.57648,	-1.37265,	-1.07017,	-0.97440,	-1.02898,	-1.17073,	-1.25831,	-1.27625,	-1.36280,	-1.27658,	-1.14061,	-1.16218,	-1.10055,	-0.91019,	-0.76663,	-0.62703,	-0.60926,	-0.50694,	-0.38308,	-0.31942,	-0.18575,	-0.12121,	-0.20132,	-0.35469,	-0.53309,	-0.58339,	-0.65171,	-0.65097,	-0.53806,	-0.51887,	-0.45457,	-0.37432,	-0.31233,	-0.15240,	-0.01202,	-0.02948,	-0.13273,	-0.24592,	-0.29106,	-0.23072,	-0.19469,	-0.19992,	-0.21835,	-0.42280,	-0.54554,	-0.56289,	-0.67922,	-0.73004,	-0.86032,	-0.95058,	-0.97533,	-1.09891,	-1.06431,	-1.02580,	-0.94463,	-0.82458,	-0.68125,	-0.50093,	-0.47577,	-0.38952,	-0.10589,	0.13842,	0.43131,	0.52990,	0.39981,	0.29089,	0.29328,	0.29852,	0.25240,	0.30587,	0.42885,	0.56036,	0.54516,	0.62255,	0.77964,	0.73152,	0.67801,	0.74452,	0.70619,	0.67511,	0.67306,	0.67952,	0.68345,	0.54894,	0.39452,	0.27406,	0.17231,	0.04470,	-0.08297,	-0.23894,	-0.57964,	-0.87730,	-0.99669,	-1.13958,	-1.30531,	-1.46732,	-1.73572,	-1.89602,	-1.88306,	-1.79884,	-1.78237,	-1.89528,	-2.13136,	-2.33796,	-2.58288,	-2.83224,	-3.00171,	-3.23615,	-3.42572,	-3.41182,	-3.44477,	-3.48270,	-3.38470,	-3.28629,	-3.02959,	-2.91122,	-2.85081,	-2.88916,	-3.06783,	-3.21988,	-3.24702,	-3.16076,	-3.14281,	-3.27509,	-3.34787,	-3.42780,	-3.39706,	-3.24956,	-3.23698,	-3.14144,	-2.93955,	-2.80145,	-2.81031,	-2.73981,	-2.65935,	-2.52858,	-2.49526,	-2.46259,	-2.35265,	-2.36918,	-2.35902,	-2.18529,	-2.16243,	-2.22671,	-2.27635,	-2.27302,	-2.03055,	-1.90117,	-1.76121,	-1.74970,	-1.87174,	-1.94328,	-1.92750,	-1.84447,	-1.84488,	-1.88022,	-1.72914,	-1.54269,	-1.35877,	-1.06602,	-0.92192,	-0.94857,	-0.96311,	-0.92030,	-0.89713,	-0.82171,	-0.74910,	-0.61955,	-0.61253,	-0.75140,	-0.90406,	-1.14873,	-1.31942,	-1.25956,	-1.12923,	-1.02892,	-0.93332,	-1.01217,	-1.07756,	-1.21299,	-1.25549,	-1.20093,	-1.16681,	-1.21463,	-1.27961,	-1.21696,	-1.05933,	-0.97284,	-0.82435,	-0.67387,	-0.61304,	-0.57736,	-0.71564,	-0.88823,	-0.94004,	-0.93690,	-0.99207,	-1.01917,	-1.13547,	-1.21387,	-1.28317,	-1.47477,	-1.71499,	-2.06167,	-2.48150,	-2.60677,	-2.60150,	-2.63605,	-2.55574,	-2.65882,	-2.65648
-2.45910,	-2.45504,	-2.51595,	-2.48814,	-2.60582,	-2.78391,	-3.03991,	-3.22243,	-3.17424,	-3.19424,	-3.33521,	-3.43907,	-3.62432,	-3.77642,	-3.82677,	-3.90750,	-3.79967,	-3.72747,	-3.59341,	-3.49948,	-3.55849,	-3.51699,	-3.48859,	-3.45079,	-3.42607,	-3.38844,	-3.26553,	-3.14898,	-3.06014,	-2.84146,	-2.71096,	-2.53775,	-2.30349,	-2.21706,	-2.31298,	-2.23094,	-2.10115,	-1.74454,	-1.38036,	-1.15761,	-0.88342,	-0.64093,	-0.52115,	-0.42094,	-0.36955,	-0.32286,	-0.22481,	-0.30910,	-0.26518,	-0.28480,	-0.36139,	-0.41920,	-0.51709,	-0.50779,	-0.51227,	-0.49010,	-0.36464,	-0.28509,	-0.18319,	-0.15190,	-0.20577,	-0.07876,	-0.05558,	0.01346,	0.17012,	0.12100,	-0.10618,	-0.15400,	-0.24176,	-0.35601,	-0.53462,	-0.83042,	-1.01792,	-1.13079,	-1.32525,	-1.38072,	-1.33770,	-1.29270,	-1.11230,	-1.08971,	-1.08929,	-1.13232,	-1.20748,	-1.23503,	-1.42928,	-1.61342,	-1.79433,	-1.91531,	-1.94287,	-1.94794,	-1.81490,	-1.65856,	-1.65934,	-1.60852,	-1.66624,	-1.65729,	-1.39035,	-1.09370,	-1.02835,	-1.01442,	-1.08190,	-1.11497,	-1.09348,	-1.17507,	-1.09240,	-0.91933,	-0.88654,	-0.81869,	-0.65482,	-0.57009,	-0.45506,	-0.42233,	-0.30837,	-0.20336,	-0.20540,	-0.12378,	-0.09686,	-0.15247,	-0.27187,	-0.46221,	-0.57966,	-0.68149,	-0.69752,	-0.57523,	-0.54678,	-0.48382,	-0.43112,	-0.38919,	-0.13985,	0.01593,	-0.11168,	-0.25972,	-0.42119,	-0.53469,	-0.51899,	-0.48619,	-0.39016,	-0.27045,	-0.37518,	-0.56664,	-0.74678,	-0.96422,	-1.03988,	-1.08215,	-1.08668,	-1.03916,	-1.07774,	-0.98930,	-0.95343,	-0.86898,	-0.65782,	-0.43740,	-0.25078,	-0.18619,	-0.11152,	0.09495,	0.22382,	0.45468,	0.57813,	0.46755,	0.50038,	0.58076,	0.48850,	0.41590,	0.47252,	0.56728,	0.73743,	0.76689,	0.89528,	1.04111,	0.94908,	0.83571,	0.83745,	0.75905,	0.71049,	0.71162,	0.75484,	0.76883,	0.60058,	0.44204,	0.27840,	0.11162,	-0.00158,	-0.11158,	-0.25976,	-0.57437,	-0.84797,	-0.98963,	-1.17485,	-1.36018,	-1.50690,	-1.79318,	-1.87983,	-1.84345,	-1.93314,	-1.98728,	-2.02767,	-2.22526,	-2.37969,	-2.67244,	-2.97812,	-3.17031,	-3.41113,	-3.55518,	-3.53418,	-3.52956,	-3.49045,	-3.37602,	-3.29307,	-3.09306,	-2.98408,	-2.85835,	-2.84937,	-3.00959,	-3.12808,	-3.18374,	-3.18347,	-3.18551,	-3.26406,	-3.35775,	-3.47614,	-3.49044,	-3.38342,	-3.43298,	-3.28519,	-3.00924,	-2.90701,	-2.89642,	-2.75614,	-2.74699,	-2.69013,	-2.67406,	-2.58831,	-2.42752,	-2.43283,	-2.43634,	-2.27597,	-2.24504,	-2.28224,	-2.28544,	-2.27478,	-2.10850,	-2.06786,	-1.94035,	-1.88440,	-2.01078,	-2.03468,	-2.01260,	-1.95421,	-1.93111,	-1.88360,	-1.72907,	-1.58918,	-1.47319,	-1.24082,	-1.11935,	-1.00218,	-0.87598,	-0.88973,	-1.03592,	-1.05117,	-1.09861,	-1.05697,	-1.01004,	-1.07171,	-1.12137,	-1.28285,	-1.48625,	-1.53293,	-1.49888,	-1.38596,	-1.20202,	-1.17799,	-1.19162,	-1.35085,	-1.41113,	-1.35279,	-1.30867,	-1.25890,	-1.28501,	-1.24199,	-1.11869,	-1.04502,	-0.95285,	-0.87522,	-0.86643,	-0.80081,	-0.89126,	-0.95011,	-0.92560,	-0.98996,	-1.11117,	-1.07719,	-1.19755,	-1.34231,	-1.41392,	-1.52986,	-1.69421,	-1.99164,	-2.40729,	-2.61197,	-2.70614,	-2.78532,	-2.64918,	-2.64302,	-2.61718
-2.59764,	-2.61502,	-2.64945,	-2.67103,	-2.78009,	-2.94773,	-3.13956,	-3.30565,	-3.36610,	-3.38116,	-3.41663,	-3.54385,	-3.60740,	-3.65440,	-3.75228,	-3.88317,	-3.85087,	-3.72689,	-3.56094,	-3.47016,	-3.52426,	-3.57302,	-3.59925,	-3.50118,	-3.41301,	-3.28484,	-3.11497,	-3.04782,	-3.02184,	-2.92953,	-2.92680,	-2.73489,	-2.56338,	-2.44509,	-2.38486,	-2.25737,	-2.04966,	-1.64862,	-1.20920,	-0.90239,	-0.69029,	-0.44555,	-0.20841,	-0.19649,	-0.13753,	-0.01068,	0.07926,	0.05216,	0.09565,	0.10180,	0.00162,	-0.09804,	-0.13811,	-0.15637,	-0.23809,	-0.24249,	-0.12721,	0.00441,	0.09711,	0.06348,	-0.01303,	0.06321,	0.05071,	0.18026,	0.24746,	0.12126,	-0.06038,	-0.15472,	-0.24487,	-0.34803,	-0.47165,	-0.63818,	-0.85228,	-1.02585,	-1.15188,	-1.32843,	-1.28073,	-1.06751,	-0.83879,	-0.78109,	-0.85083,	-0.92291,	-1.01139,	-1.04129,	-1.16419,	-1.35167,	-1.54997,	-1.65630,	-1.69286,	-1.71478,	-1.69112,	-1.66199,	-1.71600,	-1.67181,	-1.70725,	-1.61381,	-1.41757,	-1.25163,	-1.15510,	-1.12513,	-1.12228,	-1.05364,	-0.94790,	-0.94237,	-0.95524,	-0.89559,	-0.75632,	-0.70677,	-0.54274,	-0.35559,	-0.28203,	-0.25749,	-0.13777,	-0.01442,	-0.03187,	-0.03984,	-0.02944,	-0.13078,	-0.35502,	-0.56224,	-0.65349,	-0.71165,	-0.71523,	-0.65234,	-0.67583,	-0.64178,	-0.62056,	-0.52069,	-0.30435,	-0.24800,	-0.32040,	-0.41713,	-0.54090,	-0.62833,	-0.62723,	-0.58287,	-0.55754,	-0.50167,	-0.46551,	-0.65809,	-0.92044,	-1.06320,	-1.14839,	-1.15421,	-1.12683,	-1.03681,	-0.95594,	-0.82988,	-0.73582,	-0.67463,	-0.62023,	-0.44229,	-0.20623,	-0.03566,	0.11645,	0.25889,	0.28574,	0.42998,	0.49738,	0.46629,	0.54887,	0.59214,	0.58308,	0.55204,	0.60436,	0.72992,	0.93874,	1.05845,	1.15333,	1.15995,	1.08820,	0.97003,	0.92306,	0.95209,	0.89232,	0.83248,	0.84932,	0.82212,	0.66985,	0.48451,	0.33737,	0.16994,	-0.06397,	-0.24346,	-0.39691,	-0.69152,	-0.93190,	-1.11545,	-1.35170,	-1.52716,	-1.65282,	-1.80068,	-1.79576,	-1.86305,	-2.00902,	-2.13199,	-2.21457,	-2.34278,	-2.42316,	-2.63852,	-2.98849,	-3.30956,	-3.50141,	-3.54126,	-3.55896,	-3.42715,	-3.29621,	-3.20771,	-3.14574,	-3.06885,	-3.02428,	-2.94093,	-2.89597,	-2.94609,	-3.08831,	-3.18478,	-3.19942,	-3.25015,	-3.33598,	-3.48374,	-3.66886,	-3.68252,	-3.61149,	-3.65015,	-3.47238,	-3.29851,	-3.17428,	-3.08281,	-2.92548,	-2.87942,	-2.82248,	-2.73569,	-2.59373,	-2.50960,	-2.52237,	-2.47481,	-2.40682,	-2.30671,	-2.27592,	-2.30032,	-2.27399,	-2.18203,	-2.15757,	-2.09564,	-2.08079,	-2.17879,	-2.28637,	-2.32204,	-2.22915,	-2.15203,	-1.97848,	-1.74231,	-1.61111,	-1.50493,	-1.36109,	-1.29157,	-1.09869,	-1.02987,	-1.05465,	-1.19140,	-1.28977,	-1.35121,	-1.30579,	-1.16708,	-1.16214,	-1.26503,	-1.40687,	-1.52865,	-1.70368,	-1.73694,	-1.64738,	-1.52097,	-1.43192,	-1.37331,	-1.41300,	-1.44552,	-1.41529,	-1.37860,	-1.42901,	-1.53465,	-1.49055,	-1.36387,	-1.26284,	-1.20885,	-1.22049,	-1.21870,	-1.13703,	-1.15751,	-1.04596,	-1.04461,	-1.13992,	-1.17227,	-1.10422,	-1.17383,	-1.31958,	-1.35881,	-1.40880,	-1.65252,	-2.00592,	-2.31366,	-2.59236,	-2.70080,	-2.71864,	-2.65378,	-2.64753,	-2.65129
-2.71659,	-2.62462,	-2.61703,	-2.68538,	-2.86163,	-3.13759,	-3.28273,	-3.45445,	-3.57527,	-3.53617,	-3.48259,	-3.49833,	-3.44993,	-3.56071,	-3.69579,	-3.87758,	-3.95969,	-3.90169,	-3.76791,	-3.67136,	-3.65323,	-3.60928,	-3.60873,	-3.43632,	-3.33282,	-3.29166,	-3.14963,	-3.06236,	-3.06988,	-3.00141,	-3.07976,	-2.98165,	-2.85889,	-2.60202,	-2.36968,	-2.14840,	-1.85160,	-1.51164,	-1.09570,	-0.80667,	-0.65474,	-0.37255,	-0.04718,	0.01779,	0.11783,	0.17185,	0.23613,	0.24348,	0.28229,	0.29200,	0.20018,	0.09031,	0.12463,	0.23721,	0.15298,	0.13962,	0.19811,	0.19771,	0.24959,	0.26099,	0.20631,	0.31370,	0.29561,	0.34484,	0.25991,	0.14440,	0.04021,	-0.06650,	-0.15864,	-0.33941,	-0.45481,	-0.54740,	-0.75011,	-0.89204,	-0.94024,	-1.10761,	-1.05850,	-0.90950,	-0.71471,	-0.59964,	-0.66728,	-0.77196,	-0.84668,	-0.87113,	-0.96436,	-1.07325,	-1.29668,	-1.42163,	-1.46312,	-1.59718,	-1.68493,	-1.67970,	-1.74746,	-1.67364,	-1.65493,	-1.56830,	-1.46106,	-1.33903,	-1.24015,	-1.22539,	-1.18839,	-1.13735,	-1.01450,	-0.96778,	-1.03299,	-0.97471,	-0.73566,	-0.62356,	-0.41049,	-0.25462,	-0.25606,	-0.22921,	-0.09925,	0.00739,	-0.03527,	-0.11335,	-0.15396,	-0.21566,	-0.44707,	-0.64668,	-0.69081,	-0.78644,	-0.81709,	-0.75238,	-0.82301,	-0.81106,	-0.77924,	-0.70995,	-0.59238,	-0.55302,	-0.53058,	-0.56212,	-0.61765,	-0.72177,	-0.76945,	-0.76192,	-0.84936,	-0.82294,	-0.65334,	-0.71365,	-0.89757,	-1.05455,	-1.19835,	-1.16908,	-1.14237,	-1.08771,	-1.00211,	-0.86946,	-0.71917,	-0.56892,	-0.54343,	-0.41635,	-0.17011,	-0.02462,	0.11434,	0.27725,	0.31426,	0.39814,	0.43609,	0.41401,	0.46942,	0.55462,	0.70972,	0.74034,	0.81971,	0.92807,	1.07038,	1.19249,	1.21664,	1.18108,	1.19291,	1.14229,	1.16110,	1.19603,	1.01045,	0.88480,	0.82193,	0.70118,	0.52541,	0.33867,	0.23665,	0.16428,	-0.04255,	-0.30400,	-0.53016,	-0.90493,	-1.21711,	-1.39328,	-1.58574,	-1.73924,	-1.78689,	-1.83504,	-1.81397,	-1.89542,	-1.97683,	-2.16204,	-2.31113,	-2.45171,	-2.55814,	-2.68228,	-3.03657,	-3.36884,	-3.40515,	-3.30355,	-3.25756,	-3.12667,	-3.13331,	-3.09590,	-3.05630,	-3.08752,	-3.14800,	-3.12678,	-3.07641,	-3.00239,	-3.01451,	-3.10354,	-3.11956,	-3.28967,	-3.54448,	-3.72259,	-3.86990,	-3.88412,	-3.78048,	-3.82110,	-3.70334,	-3.57896,	-3.36519,	-3.23926,	-3.07116,	-2.98447,	-2.97949,	-2.83985,	-2.67605,	-2.60618,	-2.54149,	-2.43862,	-2.37968,	-2.29540,	-2.38137,	-2.42390,	-2.36955,	-2.32134,	-2.33955,	-2.35989,	-2.42817,	-2.48668,	-2.51350,	-2.56671,	-2.45268,	-2.37318,	-2.23163,	-1.90921,	-1.65994,	-1.53928,	-1.39875,	-1.40083,	-1.30227,	-1.30260,	-1.22901,	-1.28429,	-1.38694,	-1.42729,	-1.41494,	-1.21706,	-1.20772,	-1.36044,	-1.45822,	-1.51054,	-1.66585,	-1.75539,	-1.87304,	-1.84500,	-1.73612,	-1.63001,	-1.59285,	-1.58129,	-1.56972,	-1.57864,	-1.63433,	-1.80088,	-1.79043,	-1.71107,	-1.72140,	-1.68558,	-1.61589,	-1.56156,	-1.40215,	-1.35301,	-1.18247,	-1.15259,	-1.13563,	-1.07139,	-0.97709,	-1.01443,	-1.23641,	-1.29847,	-1.38606,	-1.69843,	-2.00803,	-2.18924,	-2.38540,	-2.47098,	-2.61120,	-2.69247,	-2.75178,	-2.78673
-2.68303,	-2.62139,	-2.63256,	-2.71779,	-2.92560,	-3.26846,	-3.39883,	-3.51961,	-3.57330,	-3.54836,	-3.48714,	-3.44233,	-3.35783,	-3.51489,	-3.57402,	-3.72574,	-3.92424,	-3.93398,	-3.87532,	-3.89494,	-3.78766,	-3.62284,	-3.58510,	-3.40211,	-3.23076,	-3.21362,	-3.15041,	-3.18262,	-3.17040,	-3.13636,	-3.18060,	-3.15191,	-2.97046,	-2.65991,	-2.36727,	-2.02976,	-1.59678,	-1.32227,	-1.06202,	-0.84839,	-0.60927,	-0.27813,	0.05694,	0.15306,	0.27933,	0.29078,	0.41206,	0.45518,	0.41076,	0.42555,	0.40063,	0.22828,	0.33696,	0.60108,	0.56219,	0.50352,	0.52990,	0.46966,	0.51008,	0.51241,	0.50991,	0.55147,	0.51229,	0.39615,	0.23201,	0.15042,	0.11038,	0.04073,	-0.04775,	-0.30345,	-0.48485,	-0.58756,	-0.65393,	-0.72378,	-0.75177,	-0.86215,	-0.82444,	-0.80704,	-0.63318,	-0.44296,	-0.50301,	-0.58604,	-0.58951,	-0.68564,	-0.76685,	-0.77959,	-1.04222,	-1.29273,	-1.32896,	-1.46988,	-1.56247,	-1.59047,	-1.61099,	-1.55847,	-1.55125,	-1.53823,	-1.44862,	-1.35915,	-1.37016,	-1.38692,	-1.29457,	-1.23624,	-1.16551,	-1.15917,	-1.10818,	-0.95245,	-0.72566,	-0.61325,	-0.42608,	-0.36201,	-0.34450,	-0.24447,	-0.13354,	-0.02414,	-0.00256,	-0.17716,	-0.29831,	-0.26993,	-0.42582,	-0.61646,	-0.63280,	-0.74634,	-0.79999,	-0.83295,	-0.93214,	-0.90124,	-0.85073,	-0.86151,	-0.87180,	-0.83942,	-0.82313,	-0.82063,	-0.78938,	-0.87101,	-0.97552,	-1.02194,	-1.07849,	-1.01817,	-0.87081,	-0.84014,	-0.91895,	-1.10099,	-1.22967,	-1.11093,	-1.10535,	-1.08273,	-0.98715,	-0.94925,	-0.82185,	-0.54249,	-0.43616,	-0.34513,	-0.11016,	0.01968,	0.11248,	0.24420,	0.33338,	0.41763,	0.38638,	0.35279,	0.39830,	0.61489,	0.84694,	0.92044,	1.06774,	1.17561,	1.16062,	1.13368,	1.12862,	1.14851,	1.16835,	1.15922,	1.23940,	1.24954,	1.02639,	0.90826,	0.72945,	0.53622,	0.44392,	0.27854,	0.12256,	0.11441,	-0.04101,	-0.41396,	-0.72442,	-1.06524,	-1.37532,	-1.59795,	-1.82662,	-1.92612,	-1.96285,	-1.96336,	-1.98131,	-1.98616,	-2.02978,	-2.20787,	-2.36553,	-2.53181,	-2.75458,	-2.88779,	-3.12533,	-3.29579,	-3.25005,	-3.06903,	-2.95834,	-2.87181,	-3.01767,	-3.00651,	-3.01292,	-3.11858,	-3.13724,	-3.13232,	-3.16810,	-3.01674,	-2.92150,	-2.99193,	-3.01422,	-3.22327,	-3.60585,	-3.83574,	-3.97889,	-3.90653,	-3.81872,	-3.85991,	-3.84153,	-3.68698,	-3.51149,	-3.44226,	-3.29659,	-3.16876,	-3.21735,	-3.10831,	-2.87602,	-2.65029,	-2.52886,	-2.43883,	-2.41426,	-2.35927,	-2.49355,	-2.45368,	-2.41257,	-2.45450,	-2.44300,	-2.51390,	-2.71266,	-2.66527,	-2.54419,	-2.61459,	-2.58258,	-2.46877,	-2.33940,	-2.00975,	-1.75845,	-1.56070,	-1.42284,	-1.42704,	-1.49816,	-1.52928,	-1.46558,	-1.46569,	-1.49200,	-1.45721,	-1.48139,	-1.31492,	-1.27262,	-1.30542,	-1.41936,	-1.52782,	-1.68651,	-1.81214,	-2.03844,	-1.99830,	-1.88139,	-1.82309,	-1.71467,	-1.61501,	-1.68829,	-1.75127,	-1.81711,	-2.03229,	-2.09996,	-1.99861,	-2.03656,	-2.00245,	-1.89937,	-1.71326,	-1.53725,	-1.45191,	-1.35594,	-1.24902,	-1.15911,	-1.07516,	-0.95130,	-0.92972,	-1.20324,	-1.38264,	-1.54716,	-1.72113,	-1.90716,	-2.02704,	-2.20582,	-2.32907,	-2.60072,	-2.76014,	-2.83167,	-2.87144
-2.59495,	-2.65310,	-2.70592,	-2.83767,	-2.97368,	-3.13314,	-3.17982,	-3.21847,	-3.23297,	-3.32234,	-3.27849,	-3.28288,	-3.21234,	-3.28001,	-3.26015,	-3.37160,	-3.63504,	-3.78974,	-3.83816,	-3.88185,	-3.74727,	-3.69639,	-3.70052,	-3.54393,	-3.34719,	-3.30609,	-3.27601,	-3.41924,	-3.40000,	-3.40571,	-3.36139,	-3.17458,	-2.90423,	-2.62715,	-2.36905,	-2.02628,	-1.47902,	-1.05129,	-0.81320,	-0.65231,	-0.38564,	-0.14169,	0.15855,	0.23128,	0.39509,	0.53761,	0.72531,	0.73161,	0.58934,	0.53804,	0.57261,	0.47688,	0.58656,	0.69339,	0.64705,	0.62663,	0.65079,	0.59666,	0.65178,	0.62128,	0.59954,	0.50002,	0.42687,	0.35932,	0.25453,	0.23208,	0.27007,	0.21974,	0.14066,	-0.02509,	-0.20123,	-0.35355,	-0.38092,	-0.50027,	-0.50730,	-0.53202,	-0.47807,	-0.46070,	-0.32155,	-0.16719,	-0.23213,	-0.34675,	-0.37615,	-0.50713,	-0.57859,	-0.69070,	-1.01308,	-1.28736,	-1.30482,	-1.41386,	-1.46463,	-1.52026,	-1.52406,	-1.57003,	-1.66547,	-1.60615,	-1.44385,	-1.33786,	-1.37417,	-1.45259,	-1.36645,	-1.21700,	-1.13975,	-1.16267,	-1.02060,	-0.86398,	-0.69262,	-0.62778,	-0.50486,	-0.40443,	-0.30213,	-0.20119,	-0.19884,	-0.20732,	-0.16900,	-0.30002,	-0.40202,	-0.42315,	-0.57122,	-0.68481,	-0.68973,	-0.83622,	-0.89736,	-1.00505,	-1.08903,	-1.02100,	-0.95746,	-0.90277,	-0.91839,	-0.92540,	-0.94447,	-1.00112,	-0.98094,	-0.94600,	-0.94893,	-0.94021,	-0.94591,	-0.95510,	-0.92406,	-0.87203,	-0.88393,	-0.98721,	-1.08992,	-1.02893,	-1.09019,	-1.11635,	-1.03414,	-0.99078,	-0.82397,	-0.57757,	-0.50460,	-0.38911,	-0.14185,	-0.06949,	-0.06217,	0.02329,	0.16901,	0.34530,	0.33641,	0.40767,	0.57354,	0.85851,	1.10588,	1.17008,	1.30921,	1.46357,	1.40664,	1.23762,	1.16285,	1.14891,	1.11034,	1.10410,	1.12705,	1.12635,	0.97686,	0.83282,	0.53023,	0.27539,	0.21668,	0.12989,	-0.02090,	-0.12210,	-0.38689,	-0.77363,	-1.02274,	-1.26136,	-1.50947,	-1.75207,	-2.04271,	-2.11654,	-2.19039,	-2.15521,	-2.10119,	-2.05015,	-2.02732,	-2.11522,	-2.29109,	-2.44887,	-2.66969,	-2.81464,	-2.94816,	-3.03924,	-3.08879,	-2.94090,	-2.83012,	-2.70799,	-2.80637,	-2.82850,	-2.92610,	-3.09861,	-3.11523,	-3.07467,	-3.08354,	-3.00870,	-3.07412,	-3.11631,	-3.04564,	-3.16611,	-3.52690,	-3.77955,	-3.96033,	-3.85506,	-3.83055,	-3.84216,	-3.74052,	-3.57444,	-3.49556,	-3.51913,	-3.48595,	-3.31162,	-3.24610,	-3.15745,	-2.94679,	-2.68655,	-2.60732,	-2.53066,	-2.55912,	-2.46936,	-2.48143,	-2.38822,	-2.45636,	-2.60576,	-2.60917,	-2.63457,	-2.71889,	-2.56674,	-2.49120,	-2.54983,	-2.52733,	-2.38639,	-2.26916,	-2.01422,	-1.85806,	-1.62350,	-1.46886,	-1.38098,	-1.40427,	-1.47112,	-1.49300,	-1.46637,	-1.47051,	-1.38059,	-1.36603,	-1.26256,	-1.18991,	-1.12376,	-1.31998,	-1.48455,	-1.69776,	-1.82770,	-1.96949,	-1.91033,	-1.87322,	-1.94671,	-1.91721,	-1.76017,	-1.74390,	-1.76844,	-1.98371,	-2.25446,	-2.33246,	-2.21606,	-2.23838,	-2.18155,	-2.06373,	-1.78356,	-1.64066,	-1.54659,	-1.38184,	-1.19796,	-1.10344,	-1.06623,	-1.07707,	-1.08321,	-1.25584,	-1.47662,	-1.67378,	-1.71420,	-1.86518,	-1.95328,	-2.19973,	-2.38140,	-2.60765,	-2.75153,	-2.81299,	-2.82532
