-1.04556,	-1.10493,	-1.23542,	-1.42430,	-1.58786,	-1.67286,	-1.65396,	-1.52065,	-1.41776,	-1.29760,	-1.14991,	-1.05388,	-1.03170,	-1.04183,	-1.03145,	-1.14588,	-1.22034,	-1.25274,	-1.34295,	-1.37449,	-1.48639,	-1.62429,	-1.66254,	-1.67386,	-1.77218,	-1.92088,	-1.81065,	-1.73142,	-1.91250,	-2.11227,	-2.21163,	-2.28156,	-2.32741,	-2.26005,	-2.11108,	-2.02116,	-1.98756,	-1.98404,	-2.04814,	-2.01603,	-2.05369,	-2.16875,	-2.23218,	-2.26347,	-2.33797,	-2.46502,	-2.53204,	-2.55830,	-2.51213,	-2.39861,	-2.34637,	-2.24510,	-2.32057,	-2.57448,	-2.74950,	-2.89107,	-3.05240,	-3.29276,	-3.40038,	-3.38935,	-3.42095,	-3.47176,	-3.50403,	-3.62423,	-3.83274,	-4.02731,	-4.20815,	-4.42763,	-4.63389,	-4.69213,	-4.75803,	-4.66245,	-4.52940,	-4.49230,	-4.49284,	-4.63021,	-4.79720,	-4.95291,	-5.02802,	-5.08230,	-5.10338,	-5.08493,	-5.08510,	-5.01063,	-5.05742,	-5.15858,	-5.10740,	-5.08435,	-5.14135,	-5.32736,	-5.34334,	-5.19565,	-5.15007,	-5.05600,	-4.86597,	-4.81548,	-4.84299,	-4.82065,	-4.71874,	-4.53017,	-4.36520,	-4.18111,	-4.16234,	-4.11899,	-4.08276,	-4.15547,	-4.19015,	-4.17923,	-4.11831,	-4.00807,	-3.79600,	-3.61783,	-3.62870,	-3.78679,	-4.05550,	-4.23621,	-4.37306,	-4.49650,	-4.51431,	-4.40381,	-4.18335,	-4.15244,	-4.15768,	-4.09097,	-4.12287,	-4.12713,	-3.98979,	-3.91134,	-3.84171,	-3.66334,	-3.46178,	-3.13995,	-2.73833,	-2.21212,	-1.87141,	-1.66337,	-1.46970,	-1.36516,	-1.26516,	-1.14390,	-1.05470,	-1.07104,	-1.00738,	-0.92144,	-0.89633,	-0.81224,	-0.78443,	-0.78924,	-0.86272,	-1.01923,	-1.04496,	-0.95882,	-0.83424,	-0.75349,	-0.64464,	-0.50429,	-0.51545,	-0.61434,	-0.58374,	-0.53403,	-0.55361,	-0.54856,	-0.56332,	-0.55676,	-0.62147,	-0.65945,	-0.84556,	-1.02038,	-1.10492,	-1.18615,	-1.24886,	-1.30205,	-1.47060,	-1.78047,	-1.94434,	-2.03742,	-2.10042,	-2.07378,	-2.16968,	-2.16725,	-2.07504,	-2.15499,	-2.27960,	-2.39206,	-2.44353,	-2.48787,	-2.49634,	-2.35379,	-2.18541,	-2.03039,	-1.80626,	-1.55558,	-1.38344,	-1.24741,	-1.24870,	-1.31459,	-1.32312,	-1.15482,	-1.04112,	-0.93608,	-0.79709,	-0.78765,	-0.76322,	-0.76149,	-0.83059,	-0.94614,	-0.97476,	-1.01433,	-1.09672,	-1.10499,	-1.17355,	-1.21792,	-1.16986,	-1.10781,	-1.02302,	-0.97296,	-0.88288,	-0.83950,	-0.79311,	-0.59673,	-0.43769,	-0.40563,	-0.32148,	-0.16692,	-0.04251,	0.07823,	0.13203,	0.18519,	0.20792,	0.32723,	0.34748,	0.30782,	0.26575,	0.15065,	0.13674,	0.25096,	0.44921,	0.57687,	0.62504,	0.74315,	0.85749,	0.92308,	0.85332,	0.72576,	0.72931,	0.70599,	0.63136,	0.46278,	0.33079,	0.17638,	-0.02476,	-0.03680,	0.02753,	-0.04726,	-0.19532,	-0.39260,	-0.55752,	-0.63797,	-0.66536,	-0.59855,	-0.50118,	-0.35623,	-0.26606,	-0.34445,	-0.41849,	-0.44832,	-0.49663,	-0.58379,	-0.74018,	-0.97694,	-1.22080,	-1.34102,	-1.38527,	-1.28424,	-1.25030,	-1.34778,	-1.33329,	-1.32989,	-1.31114,	-1.25248,	-1.16552,	-1.10707,	-1.18621,	-1.17064,	-1.13737,	-1.27774,	-1.44760,	-1.52585,	-1.57585,	-1.55617,	-1.57164,	-1.64146,	-1.82840,	-2.01382,	-2.09181,	-2.23600,	-2.23148,	-2.20768,	-2.20642,	-2.00197,	-1.70053,	-1.53732,	-1.53189,	-1.52744,	-1.50779,	-1.42907,	-1.43561
-0.86802,	-0.94773,	-1.08580,	-1.28707,	-1.45088,	-1.52914,	-1.47065,	-1.29185,	-1.17639,	-1.04413,	-0.94690,	-0.89468,	-0.85580,	-0.84039,	-0.82276,	-0.92490,	-1.02998,	-1.13094,	-1.23806,	-1.22182,	-1.33702,	-1.43962,	-1.51939,	-1.62071,	-1.66008,	-1.74291,	-1.69465,	-1.77286,	-1.95782,	-2.01240,	-2.06674,	-2.15372,	-2.18974,	-2.14168,	-2.02313,	-1.91409,	-1.82583,	-1.87636,	-2.00634,	-1.98485,	-2.04276,	-2.22174,	-2.34688,	-2.34383,	-2.25229,	-2.28531,	-2.38377,	-2.47313,	-2.52131,	-2.51388,	-2.48945,	-2.35849,	-2.41512,	-2.58825,	-2.67346,	-2.80344,	-2.87566,	-3.04493,	-3.18371,	-3.33916,	-3.49685,	-3.50825,	-3.56784,	-3.78304,	-3.96872,	-4.08043,	-4.19200,	-4.42636,	-4.65130,	-4.78127,	-4.87901,	-4.83569,	-4.74101,	-4.68478,	-4.68114,	-4.77768,	-4.80845,	-4.86956,	-4.91557,	-4.98396,	-5.03120,	-5.09584,	-5.15568,	-5.06336,	-5.05023,	-5.09268,	-5.01031,	-5.06434,	-5.05744,	-5.10056,	-5.03547,	-4.95193,	-4.96218,	-4.81637,	-4.65910,	-4.67088,	-4.66989,	-4.65216,	-4.57586,	-4.42964,	-4.28022,	-4.20864,	-4.20725,	-4.10750,	-3.97072,	-4.00621,	-4.12092,	-4.21881,	-4.14511,	-3.97167,	-3.71962,	-3.53543,	-3.53375,	-3.71848,	-3.96995,	-4.09394,	-4.18474,	-4.30693,	-4.28764,	-4.28182,	-4.11843,	-4.05136,	-4.06063,	-4.13596,	-4.24783,	-4.11049,	-3.88035,	-3.84655,	-3.77754,	-3.55801,	-3.31826,	-3.08502,	-2.73135,	-2.27623,	-1.94525,	-1.67738,	-1.40611,	-1.24211,	-1.13062,	-1.06935,	-0.92682,	-0.87689,	-0.83119,	-0.75747,	-0.68763,	-0.62289,	-0.63890,	-0.64454,	-0.66835,	-0.79765,	-0.74556,	-0.72922,	-0.64161,	-0.53663,	-0.42958,	-0.35347,	-0.44044,	-0.50019,	-0.45952,	-0.47362,	-0.52295,	-0.52775,	-0.46824,	-0.41313,	-0.37986,	-0.47457,	-0.78543,	-1.05645,	-1.19693,	-1.27768,	-1.34758,	-1.48609,	-1.60531,	-1.78606,	-1.87766,	-1.93350,	-1.98607,	-2.02838,	-2.15685,	-2.17309,	-2.07660,	-2.16600,	-2.23880,	-2.42745,	-2.48981,	-2.41199,	-2.35330,	-2.30206,	-2.27263,	-2.05035,	-1.72829,	-1.56129,	-1.44057,	-1.29087,	-1.23566,	-1.28501,	-1.27967,	-1.17022,	-1.12733,	-1.05309,	-0.88496,	-0.84565,	-0.85310,	-0.93704,	-0.95786,	-0.98612,	-1.03241,	-1.11827,	-1.20816,	-1.22988,	-1.27920,	-1.29868,	-1.20745,	-1.18609,	-1.07002,	-1.00729,	-0.91774,	-0.81853,	-0.76177,	-0.63314,	-0.64265,	-0.62684,	-0.40509,	-0.19520,	0.00252,	0.15512,	0.20207,	0.20056,	0.17412,	0.24680,	0.20135,	0.13226,	0.14352,	0.12557,	0.17982,	0.27779,	0.51713,	0.75383,	0.87266,	0.97791,	1.03135,	1.02739,	0.89947,	0.73566,	0.80568,	0.83473,	0.82194,	0.61807,	0.40163,	0.31383,	0.14022,	0.00216,	-0.11250,	-0.18073,	-0.15953,	-0.28822,	-0.44932,	-0.50144,	-0.50902,	-0.46041,	-0.38803,	-0.28444,	-0.30468,	-0.40143,	-0.40087,	-0.37384,	-0.45586,	-0.65522,	-0.83554,	-0.94497,	-1.05763,	-1.11300,	-1.16531,	-1.12039,	-1.14161,	-1.22382,	-1.17538,	-1.23062,	-1.25670,	-1.22427,	-1.24411,	-1.14873,	-1.10991,	-1.04074,	-1.04664,	-1.20149,	-1.26299,	-1.34092,	-1.44315,	-1.38603,	-1.36285,	-1.43491,	-1.64557,	-1.81878,	-1.95656,	-2.10576,	-2.06744,	-1.99917,	-1.97290,	-1.85871,	-1.65231,	-1.43364,	-1.37183,	-1.36436,	-1.31316,	-1.17515,	-1.17404
-0.71515,	-0.81322,	-0.98942,	-1.14478,	-1.25148,	-1.32996,	-1.20994,	-1.03004,	-0.97593,	-0.81335,	-0.73050,	-0.76500,	-0.78146,	-0.78798,	-0.74242,	-0.83940,	-0.98671,	-1.05007,	-1.08841,	-1.09631,	-1.23569,	-1.30540,	-1.32842,	-1.47055,	-1.56043,	-1.63156,	-1.76400,	-1.87567,	-1.92602,	-2.00673,	-2.04642,	-2.06052,	-2.09729,	-2.03178,	-2.01075,	-1.91006,	-1.76840,	-1.79501,	-1.81769,	-1.77576,	-1.92468,	-2.10745,	-2.23069,	-2.26501,	-2.18789,	-2.28573,	-2.42147,	-2.55986,	-2.71124,	-2.70275,	-2.61702,	-2.49566,	-2.50547,	-2.54982,	-2.50887,	-2.56829,	-2.64883,	-2.74750,	-3.01039,	-3.24962,	-3.40557,	-3.54731,	-3.71485,	-3.89507,	-4.07114,	-4.09152,	-4.21082,	-4.43293,	-4.60660,	-4.79575,	-4.89925,	-4.91306,	-4.95969,	-4.90048,	-4.82927,	-4.89292,	-4.86339,	-4.89959,	-4.90600,	-4.96664,	-5.06933,	-5.11338,	-5.10543,	-5.02096,	-5.02040,	-5.02257,	-4.91134,	-4.93264,	-4.96483,	-4.88427,	-4.83223,	-4.75780,	-4.65805,	-4.59151,	-4.63493,	-4.65961,	-4.69555,	-4.58023,	-4.47339,	-4.34871,	-4.16200,	-4.13339,	-4.08919,	-3.91785,	-3.85430,	-3.94840,	-4.07085,	-4.23479,	-4.18871,	-4.03254,	-3.76411,	-3.54883,	-3.52715,	-3.63588,	-3.79190,	-3.89530,	-4.00820,	-4.10102,	-4.04669,	-4.02648,	-4.04365,	-3.97837,	-4.06480,	-4.21749,	-4.20382,	-4.01297,	-3.87334,	-3.76377,	-3.68324,	-3.39106,	-3.15383,	-3.01679,	-2.68274,	-2.29719,	-1.95558,	-1.58690,	-1.33621,	-1.16996,	-0.98665,	-0.95069,	-0.81217,	-0.76790,	-0.72047,	-0.62233,	-0.57338,	-0.50272,	-0.47488,	-0.46140,	-0.51069,	-0.59935,	-0.49138,	-0.40784,	-0.43873,	-0.36230,	-0.36819,	-0.41648,	-0.40097,	-0.33377,	-0.35387,	-0.32552,	-0.39101,	-0.35484,	-0.26455,	-0.23943,	-0.18976,	-0.38528,	-0.76484,	-1.01106,	-1.23704,	-1.37546,	-1.39752,	-1.54660,	-1.61662,	-1.74793,	-1.83091,	-1.85791,	-1.94719,	-2.01761,	-2.07502,	-2.07994,	-2.08145,	-2.17269,	-2.19337,	-2.26312,	-2.36180,	-2.24471,	-2.20290,	-2.27301,	-2.18070,	-1.86610,	-1.66712,	-1.54239,	-1.46369,	-1.29188,	-1.17990,	-1.24594,	-1.22121,	-1.17395,	-1.19490,	-1.08013,	-0.94513,	-0.95089,	-0.90960,	-1.00316,	-1.03217,	-1.07357,	-1.16625,	-1.25443,	-1.37732,	-1.40534,	-1.33783,	-1.27398,	-1.22937,	-1.27891,	-1.20071,	-1.05214,	-0.98102,	-0.80946,	-0.70711,	-0.72591,	-0.73254,	-0.63530,	-0.51550,	-0.31240,	-0.12752,	-0.01084,	0.06760,	0.03391,	0.03962,	0.12464,	0.06471,	0.10273,	0.19532,	0.19256,	0.32227,	0.44347,	0.67239,	0.92399,	1.05342,	1.13946,	1.07927,	0.98162,	0.91056,	0.84112,	0.91411,	0.93885,	0.95392,	0.83843,	0.59835,	0.48303,	0.29637,	-0.05007,	-0.19219,	-0.12697,	-0.12005,	-0.20772,	-0.30970,	-0.35964,	-0.32796,	-0.34605,	-0.30168,	-0.22291,	-0.31506,	-0.35622,	-0.32575,	-0.36921,	-0.46224,	-0.68476,	-0.90740,	-0.96847,	-1.00869,	-0.99046,	-1.06621,	-1.13597,	-1.16316,	-1.17748,	-1.14777,	-1.20451,	-1.20929,	-1.13563,	-1.17093,	-1.11826,	-1.01473,	-1.04851,	-1.07876,	-1.13334,	-1.22072,	-1.32750,	-1.37631,	-1.31541,	-1.21096,	-1.26828,	-1.41599,	-1.53237,	-1.72264,	-1.81999,	-1.73909,	-1.72249,	-1.67415,	-1.60992,	-1.55347,	-1.37911,	-1.32112,	-1.26051,	-1.17394,	-1.06277,	-0.97860
-0.62166,	-0.78140,	-0.92814,	-0.98853,	-0.98056,	-1.03450,	-0.99734,	-0.90455,	-0.86331,	-0.67793,	-0.56847,	-0.58860,	-0.62816,	-0.67188,	-0.63596,	-0.73533,	-0.86160,	-0.88182,	-0.89863,	-0.91241,	-1.03792,	-1.08395,	-1.11597,	-1.33342,	-1.50847,	-1.64822,	-1.81695,	-1.83696,	-1.86866,	-2.05396,	-2.11116,	-2.10189,	-2.15945,	-2.12714,	-2.13918,	-2.01302,	-1.80879,	-1.72841,	-1.69374,	-1.70247,	-1.87131,	-1.99249,	-2.06831,	-2.10554,	-2.09078,	-2.26243,	-2.41383,	-2.56427,	-2.71609,	-2.65927,	-2.56908,	-2.48231,	-2.44994,	-2.39082,	-2.29475,	-2.34345,	-2.40878,	-2.50426,	-2.79254,	-3.00068,	-3.25470,	-3.60510,	-3.83867,	-3.97218,	-4.13548,	-4.17497,	-4.30854,	-4.47604,	-4.57474,	-4.74424,	-4.90179,	-5.02491,	-5.15101,	-5.09904,	-4.98639,	-4.97085,	-4.89835,	-4.91596,	-4.86545,	-4.87010,	-4.95113,	-4.92368,	-4.88058,	-4.82204,	-4.82438,	-4.79187,	-4.68153,	-4.72577,	-4.78629,	-4.71016,	-4.66917,	-4.50108,	-4.37473,	-4.49210,	-4.68130,	-4.73914,	-4.81423,	-4.66319,	-4.49113,	-4.32727,	-4.08834,	-3.96905,	-3.89517,	-3.78719,	-3.79638,	-3.91490,	-4.01319,	-4.13400,	-4.08237,	-3.94491,	-3.69008,	-3.47716,	-3.43797,	-3.44486,	-3.55241,	-3.65373,	-3.73107,	-3.75808,	-3.69861,	-3.76428,	-3.94062,	-3.96546,	-4.08188,	-4.11262,	-4.00796,	-3.93200,	-3.88246,	-3.72646,	-3.61525,	-3.33572,	-3.08579,	-2.91388,	-2.58683,	-2.22208,	-1.92248,	-1.61465,	-1.39305,	-1.20396,	-0.94791,	-0.82910,	-0.67843,	-0.64051,	-0.58117,	-0.46330,	-0.42093,	-0.28972,	-0.22158,	-0.19646,	-0.23870,	-0.28225,	-0.18490,	-0.15329,	-0.27280,	-0.29307,	-0.38691,	-0.38856,	-0.28588,	-0.21493,	-0.24792,	-0.19615,	-0.25625,	-0.22494,	-0.13648,	-0.10855,	-0.08813,	-0.29564,	-0.68361,	-0.98375,	-1.25024,	-1.39164,	-1.39111,	-1.49464,	-1.53228,	-1.64267,	-1.72511,	-1.71605,	-1.78023,	-1.78700,	-1.79607,	-1.84891,	-1.93484,	-1.99476,	-1.96109,	-1.97260,	-2.08525,	-2.03155,	-2.05362,	-2.07751,	-1.89708,	-1.65842,	-1.56636,	-1.44874,	-1.40606,	-1.31076,	-1.21375,	-1.25080,	-1.22547,	-1.19706,	-1.24358,	-1.19209,	-1.12208,	-1.13427,	-1.05089,	-1.08454,	-1.09141,	-1.13345,	-1.22038,	-1.26952,	-1.38679,	-1.37351,	-1.26044,	-1.20274,	-1.20558,	-1.28965,	-1.25003,	-1.11841,	-1.07217,	-0.85855,	-0.73697,	-0.75419,	-0.69207,	-0.63121,	-0.64789,	-0.49614,	-0.37514,	-0.33977,	-0.24812,	-0.20732,	-0.10351,	0.06358,	0.04244,	0.07073,	0.16310,	0.19689,	0.38370,	0.59001,	0.87680,	1.13636,	1.25804,	1.29799,	1.14177,	1.03360,	1.03690,	1.03865,	1.11786,	1.13870,	1.15720,	1.05952,	0.79142,	0.61985,	0.40078,	0.04923,	-0.02925,	0.00860,	-0.08000,	-0.13830,	-0.21097,	-0.30219,	-0.27730,	-0.29130,	-0.25477,	-0.18135,	-0.28259,	-0.36151,	-0.38986,	-0.46010,	-0.52323,	-0.69121,	-0.87886,	-0.92939,	-0.96322,	-0.91316,	-1.00032,	-1.10307,	-1.10750,	-1.11109,	-1.08945,	-1.07373,	-1.02332,	-0.96700,	-1.03568,	-1.00593,	-0.93064,	-0.99415,	-0.97609,	-1.03266,	-1.20405,	-1.29692,	-1.29652,	-1.26398,	-1.16921,	-1.19125,	-1.25100,	-1.30060,	-1.45973,	-1.53910,	-1.47387,	-1.46379,	-1.39028,	-1.36405,	-1.37704,	-1.24188,	-1.17521,	-1.04105,	-0.91981,	-0.81766,	-0.65295
-0.44565,	-0.55105,	-0.59324,	-0.66488,	-0.71887,	-0.72908,	-0.81068,	-0.84316,	-0.70935,	-0.53916,	-0.42587,	-0.38401,	-0.42685,	-0.51309,	-0.56964,	-0.64591,	-0.76433,	-0.91168,	-0.94243,	-0.88267,	-0.96247,	-1.00756,	-1.07594,	-1.33444,	-1.56678,	-1.78473,	-1.89407,	-1.86430,	-1.95771,	-2.09376,	-2.19439,	-2.23545,	-2.24516,	-2.16274,	-2.07330,	-1.99934,	-1.91683,	-1.73241,	-1.66928,	-1.76858,	-1.83221,	-1.86385,	-1.92613,	-2.02106,	-2.09930,	-2.21714,	-2.31885,	-2.40759,	-2.49641,	-2.54155,	-2.51963,	-2.43789,	-2.41034,	-2.30743,	-2.20806,	-2.24454,	-2.24354,	-2.34808,	-2.61307,	-2.85275,	-3.25973,	-3.60244,	-3.82511,	-3.93306,	-4.02597,	-4.09417,	-4.23028,	-4.46709,	-4.66526,	-4.79753,	-4.92426,	-5.10158,	-5.17690,	-5.17820,	-5.13254,	-5.07307,	-5.00053,	-4.97636,	-4.87884,	-4.77636,	-4.78282,	-4.84283,	-4.81724,	-4.71136,	-4.70264,	-4.64889,	-4.54773,	-4.58491,	-4.62039,	-4.57978,	-4.56456,	-4.39374,	-4.38218,	-4.50548,	-4.66870,	-4.76977,	-4.81280,	-4.61791,	-4.38099,	-4.26425,	-4.13590,	-3.91881,	-3.74373,	-3.77201,	-3.75744,	-3.78174,	-3.84002,	-3.89804,	-3.85287,	-3.71232,	-3.52392,	-3.36875,	-3.34156,	-3.44086,	-3.58476,	-3.60945,	-3.58881,	-3.53395,	-3.49955,	-3.65578,	-3.87178,	-3.93388,	-4.02976,	-3.93089,	-3.89757,	-3.90176,	-3.87467,	-3.75994,	-3.55947,	-3.23602,	-2.88258,	-2.62017,	-2.44285,	-2.21296,	-1.90894,	-1.70728,	-1.45060,	-1.21037,	-0.94743,	-0.73712,	-0.61883,	-0.56673,	-0.48894,	-0.36840,	-0.29546,	-0.24527,	-0.20235,	-0.07765,	-0.04823,	-0.03064,	-0.00071,	-0.06708,	-0.20786,	-0.25893,	-0.34431,	-0.26247,	-0.23465,	-0.18276,	-0.16182,	-0.17116,	-0.18242,	-0.07091,	0.04854,	0.04092,	-0.10592,	-0.32887,	-0.54487,	-0.87517,	-1.08858,	-1.16728,	-1.24444,	-1.36631,	-1.48069,	-1.58060,	-1.64209,	-1.59589,	-1.53879,	-1.57522,	-1.66589,	-1.73586,	-1.80163,	-1.77166,	-1.69428,	-1.67200,	-1.77880,	-1.82238,	-1.93604,	-1.89636,	-1.75895,	-1.60831,	-1.43343,	-1.29084,	-1.26654,	-1.23901,	-1.15400,	-1.13621,	-1.25595,	-1.39898,	-1.36147,	-1.36114,	-1.33487,	-1.27519,	-1.20950,	-1.20451,	-1.23205,	-1.25821,	-1.25977,	-1.24065,	-1.26284,	-1.28635,	-1.32404,	-1.31657,	-1.31906,	-1.36029,	-1.31170,	-1.22816,	-1.19213,	-0.97390,	-0.88545,	-0.86399,	-0.83415,	-0.82531,	-0.82662,	-0.77649,	-0.69682,	-0.57959,	-0.37158,	-0.17133,	-0.07367,	-0.00182,	0.06911,	0.04262,	0.07097,	0.20883,	0.39609,	0.67248,	1.00900,	1.25730,	1.38213,	1.36057,	1.23264,	1.13160,	1.07243,	1.12911,	1.24292,	1.24460,	1.22268,	1.08898,	0.83098,	0.64322,	0.45544,	0.24336,	0.12065,	-0.00947,	-0.07022,	-0.09730,	-0.17626,	-0.25646,	-0.17500,	-0.09528,	-0.18583,	-0.29257,	-0.33366,	-0.42510,	-0.54030,	-0.53266,	-0.55469,	-0.65760,	-0.80522,	-0.89316,	-0.95483,	-0.94644,	-0.99810,	-1.06699,	-1.14503,	-1.16752,	-1.09484,	-1.01046,	-0.93514,	-0.93468,	-0.99842,	-0.92490,	-0.90456,	-0.97555,	-0.96932,	-1.05759,	-1.12264,	-1.14358,	-1.12819,	-1.08901,	-0.99337,	-0.96754,	-1.09440,	-1.26377,	-1.34729,	-1.32721,	-1.27451,	-1.17378,	-1.09592,	-1.11600,	-1.12175,	-1.00891,	-0.87561,	-0.69027,	-0.55081,	-0.48333,	-0.46122
-0.22300,	-0.25056,	-0.24012,	-0.34666,	-0.43352,	-0.42773,	-0.53518,	-0.61820,	-0.57314,	-0.51414,	-0.40392,	-0.32677,	-0.40350,	-0.54885,	-0.66643,	-0.72284,	-0.74504,	-0.90158,	-0.96410,	-0.89629,	-1.05719,	-1.18448,	-1.20406,	-1.38711,	-1.61189,	-1.83728,	-1.97494,	-1.98416,	-2.05225,	-2.07526,	-2.16640,	-2.21564,	-2.24468,	-2.17497,	-2.00836,	-1.97274,	-1.93814,	-1.71595,	-1.65753,	-1.75621,	-1.84627,	-1.94855,	-2.01778,	-2.15792,	-2.29431,	-2.35209,	-2.37920,	-2.41656,	-2.38608,	-2.38873,	-2.40526,	-2.32587,	-2.35436,	-2.30306,	-2.16498,	-2.13492,	-2.12645,	-2.22802,	-2.52379,	-2.82512,	-3.16623,	-3.34005,	-3.54323,	-3.65540,	-3.79555,	-4.00114,	-4.18087,	-4.51468,	-4.76365,	-4.83769,	-4.92259,	-5.05676,	-5.18360,	-5.36924,	-5.36719,	-5.26832,	-5.19292,	-5.16594,	-5.03900,	-4.87605,	-4.78264,	-4.76372,	-4.70475,	-4.53442,	-4.56077,	-4.61861,	-4.52338,	-4.48043,	-4.48848,	-4.39641,	-4.38862,	-4.29415,	-4.31807,	-4.31644,	-4.40964,	-4.51321,	-4.57495,	-4.51148,	-4.33070,	-4.30113,	-4.23262,	-3.92257,	-3.68415,	-3.70569,	-3.69571,	-3.76566,	-3.77636,	-3.79605,	-3.76153,	-3.66212,	-3.52841,	-3.41582,	-3.35622,	-3.36857,	-3.51431,	-3.51129,	-3.51466,	-3.56975,	-3.54818,	-3.61716,	-3.72741,	-3.68210,	-3.77271,	-3.72386,	-3.76853,	-3.74648,	-3.73076,	-3.65438,	-3.42791,	-3.17479,	-2.78247,	-2.50562,	-2.42312,	-2.23576,	-1.92933,	-1.69210,	-1.43127,	-1.33129,	-1.10189,	-0.86211,	-0.77477,	-0.73997,	-0.61994,	-0.46768,	-0.35956,	-0.23781,	-0.19445,	-0.00815,	0.05531,	0.01193,	0.03090,	0.01855,	-0.09896,	-0.06843,	-0.10000,	-0.05805,	-0.10396,	-0.03948,	-0.03639,	-0.10087,	-0.11130,	-0.07482,	0.00595,	-0.07407,	-0.29328,	-0.40312,	-0.46417,	-0.69821,	-0.85750,	-1.05569,	-1.21428,	-1.34267,	-1.48199,	-1.58273,	-1.62495,	-1.57256,	-1.48534,	-1.44402,	-1.54921,	-1.57428,	-1.53077,	-1.51971,	-1.45059,	-1.35839,	-1.47692,	-1.54699,	-1.71173,	-1.74996,	-1.67987,	-1.50185,	-1.25742,	-1.11292,	-1.12737,	-1.24787,	-1.21775,	-1.20232,	-1.42211,	-1.63001,	-1.56180,	-1.54036,	-1.52860,	-1.56903,	-1.53306,	-1.47118,	-1.49527,	-1.52853,	-1.47551,	-1.39497,	-1.34393,	-1.24734,	-1.29761,	-1.32201,	-1.34048,	-1.45195,	-1.42336,	-1.30147,	-1.25648,	-1.06369,	-1.02627,	-1.07391,	-1.11983,	-1.08684,	-1.05754,	-1.07818,	-1.00088,	-0.85865,	-0.60574,	-0.32831,	-0.22769,	-0.14872,	0.00841,	0.03265,	0.09014,	0.18085,	0.29588,	0.58238,	0.89105,	1.07738,	1.18915,	1.20202,	1.20366,	1.25415,	1.22163,	1.27365,	1.35446,	1.22440,	1.09727,	0.98008,	0.78305,	0.62881,	0.51224,	0.33154,	0.12584,	-0.03717,	-0.01214,	-0.00236,	-0.07995,	-0.21979,	-0.19262,	-0.11306,	-0.31356,	-0.48051,	-0.42306,	-0.44409,	-0.54866,	-0.60445,	-0.70511,	-0.76042,	-0.87264,	-0.97204,	-1.04432,	-1.05567,	-1.07902,	-1.01203,	-1.00979,	-1.03537,	-0.96046,	-0.97924,	-1.01777,	-1.01374,	-1.01326,	-0.90882,	-0.88918,	-1.01547,	-1.05805,	-1.06353,	-0.97556,	-0.95089,	-0.92610,	-0.93526,	-0.91826,	-0.87705,	-1.04181,	-1.22335,	-1.20926,	-1.12006,	-1.04773,	-0.98930,	-1.02153,	-0.98093,	-0.86499,	-0.73190,	-0.58715,	-0.40708,	-0.30445,	-0.22299,	-0.20425
0.02300,	0.00421,	-0.02819,	-0.05521,	-0.10106,	-0.14925,	-0.27636,	-0.39188,	-0.45808,	-0.44126,	-0.29035,	-0.28346,	-0.41988,	-0.50404,	-0.65909,	-0.71181,	-0.62663,	-0.76574,	-0.91536,	-0.89433,	-1.06647,	-1.23485,	-1.28282,	-1.39560,	-1.57641,	-1.84312,	-2.05141,	-2.15363,	-2.18864,	-2.19639,	-2.21663,	-2.16849,	-2.16358,	-2.17678,	-2.08612,	-1.99449,	-1.89150,	-1.73018,	-1.70205,	-1.78880,	-1.92723,	-2.07234,	-2.09135,	-2.25746,	-2.42931,	-2.40493,	-2.44226,	-2.52001,	-2.38891,	-2.33184,	-2.37548,	-2.27727,	-2.20290,	-2.10572,	-1.98404,	-1.95364,	-1.96026,	-2.15256,	-2.46707,	-2.82110,	-3.02736,	-3.14475,	-3.34120,	-3.43773,	-3.59427,	-3.92737,	-4.20932,	-4.52339,	-4.69780,	-4.81213,	-4.93295,	-5.11510,	-5.33572,	-5.58583,	-5.50280,	-5.36720,	-5.30013,	-5.18473,	-5.04372,	-4.94060,	-4.74135,	-4.62334,	-4.53379,	-4.32705,	-4.29452,	-4.39127,	-4.37172,	-4.37160,	-4.33191,	-4.25919,	-4.18774,	-4.16231,	-4.14631,	-4.14546,	-4.23163,	-4.29546,	-4.31734,	-4.37498,	-4.32461,	-4.30529,	-4.15822,	-3.88228,	-3.66204,	-3.66343,	-3.67314,	-3.79559,	-3.74554,	-3.76315,	-3.79328,	-3.66779,	-3.54240,	-3.51921,	-3.33815,	-3.21014,	-3.34081,	-3.37998,	-3.39907,	-3.51554,	-3.51949,	-3.57165,	-3.52066,	-3.46001,	-3.53904,	-3.62459,	-3.67564,	-3.66473,	-3.64831,	-3.54037,	-3.25448,	-3.06201,	-2.75896,	-2.53413,	-2.40129,	-2.24630,	-1.97604,	-1.72612,	-1.48383,	-1.46633,	-1.20712,	-0.96008,	-0.91929,	-0.82148,	-0.60673,	-0.50126,	-0.33816,	-0.14541,	-0.12948,	-0.00074,	0.11142,	0.10138,	0.17665,	0.16829,	0.14108,	0.15461,	0.13639,	0.06662,	0.02041,	0.04954,	0.00330,	-0.06380,	-0.05261,	-0.11666,	-0.15939,	-0.29309,	-0.40782,	-0.46148,	-0.50859,	-0.70497,	-0.84997,	-1.12013,	-1.23824,	-1.29074,	-1.40265,	-1.41655,	-1.37719,	-1.43115,	-1.37508,	-1.27176,	-1.36033,	-1.38322,	-1.21425,	-1.16468,	-1.11763,	-1.10041,	-1.18118,	-1.27669,	-1.44502,	-1.58680,	-1.53257,	-1.35722,	-1.16446,	-1.08033,	-1.09979,	-1.27963,	-1.33864,	-1.37302,	-1.51232,	-1.70923,	-1.72019,	-1.74429,	-1.75605,	-1.87218,	-1.77389,	-1.60083,	-1.63269,	-1.63888,	-1.50591,	-1.48347,	-1.40656,	-1.16612,	-1.13948,	-1.21252,	-1.23727,	-1.37929,	-1.40746,	-1.36309,	-1.28426,	-1.13657,	-1.15423,	-1.29204,	-1.39335,	-1.37351,	-1.38308,	-1.41302,	-1.29004,	-1.14560,	-0.96438,	-0.72907,	-0.49887,	-0.31284,	-0.14440,	-0.06072,	0.08569,	0.16134,	0.28783,	0.59353,	0.78132,	0.90915,	1.09788,	1.11860,	1.20510,	1.39859,	1.39446,	1.35831,	1.40236,	1.26168,	1.09690,	0.93223,	0.79560,	0.68122,	0.54065,	0.29620,	0.03720,	-0.07051,	-0.01911,	0.03657,	0.02567,	-0.10522,	-0.21191,	-0.26847,	-0.44115,	-0.54706,	-0.49097,	-0.47840,	-0.56519,	-0.69109,	-0.82225,	-0.80222,	-0.92107,	-0.99233,	-0.92990,	-0.96555,	-1.03412,	-0.88181,	-0.84408,	-0.91762,	-0.85974,	-0.89052,	-0.97765,	-1.01326,	-1.00028,	-0.88199,	-0.90767,	-1.05244,	-1.15342,	-1.09364,	-1.00627,	-0.98157,	-0.91377,	-0.89529,	-0.96056,	-0.94969,	-0.97029,	-0.99696,	-0.98142,	-0.92422,	-0.90358,	-0.91020,	-0.95844,	-0.76927,	-0.56725,	-0.43203,	-0.21504,	-0.07679,	-0.07196,	0.07934,	0.14080
0.32202,	0.36653,	0.33754,	0.34467,	0.20863,	0.06333,	-0.07347,	-0.16755,	-0.18943,	-0.16937,	-0.09922,	-0.24012,	-0.44967,	-0.47391,	-0.52552,	-0.51193,	-0.49990,	-0.72062,	-0.90171,	-0.92096,	-1.10692,	-1.29778,	-1.40647,	-1.53445,	-1.70698,	-1.98579,	-2.10630,	-2.15050,	-2.21176,	-2.26954,	-2.29645,	-2.21560,	-2.11055,	-2.09445,	-2.09209,	-2.00454,	-1.92372,	-1.85699,	-1.82049,	-1.86922,	-1.94601,	-2.08187,	-2.15532,	-2.35820,	-2.55990,	-2.54172,	-2.54422,	-2.55829,	-2.41231,	-2.38733,	-2.40286,	-2.26918,	-2.15037,	-2.01158,	-1.89695,	-1.90427,	-1.95943,	-2.21885,	-2.45287,	-2.67745,	-2.82104,	-2.93099,	-3.11016,	-3.26214,	-3.44571,	-3.77005,	-4.08461,	-4.32946,	-4.47868,	-4.72414,	-4.93844,	-5.24317,	-5.45964,	-5.59194,	-5.45954,	-5.37069,	-5.34420,	-5.20802,	-5.01766,	-4.86139,	-4.64820,	-4.59148,	-4.46251,	-4.19012,	-4.09687,	-4.15869,	-4.14048,	-4.20014,	-4.18598,	-4.20844,	-4.09958,	-3.97354,	-3.92837,	-3.96645,	-4.08507,	-4.17103,	-4.12188,	-4.10648,	-4.07474,	-4.02089,	-3.85794,	-3.76156,	-3.62512,	-3.63834,	-3.62631,	-3.68789,	-3.63932,	-3.71338,	-3.76639,	-3.65856,	-3.53860,	-3.49687,	-3.30507,	-3.23581,	-3.30602,	-3.29325,	-3.31579,	-3.43782,	-3.44176,	-3.51476,	-3.42108,	-3.40242,	-3.44094,	-3.49130,	-3.59231,	-3.62373,	-3.57382,	-3.42306,	-3.06592,	-2.81595,	-2.60961,	-2.48450,	-2.34083,	-2.26555,	-2.03569,	-1.85234,	-1.62689,	-1.51904,	-1.24150,	-1.05020,	-1.01690,	-0.89929,	-0.61774,	-0.43402,	-0.24172,	-0.14747,	-0.11414,	0.02676,	0.13873,	0.11718,	0.21276,	0.20034,	0.23335,	0.19168,	0.14023,	0.12969,	0.10845,	0.10326,	0.06905,	-0.00900,	-0.00200,	-0.08792,	-0.22095,	-0.36759,	-0.42228,	-0.54013,	-0.60366,	-0.78706,	-0.85916,	-1.00339,	-1.07785,	-1.16289,	-1.28781,	-1.28337,	-1.17307,	-1.17113,	-1.11845,	-1.11581,	-1.19088,	-1.14374,	-0.92678,	-0.87057,	-0.83922,	-0.94850,	-1.08517,	-1.22336,	-1.35369,	-1.34961,	-1.24050,	-1.13622,	-1.07009,	-1.15009,	-1.19363,	-1.27675,	-1.34345,	-1.43196,	-1.52939,	-1.76956,	-1.85552,	-1.94417,	-1.96553,	-2.00834,	-1.85081,	-1.66929,	-1.69829,	-1.67826,	-1.46443,	-1.37137,	-1.26694,	-1.13628,	-1.13268,	-1.16625,	-1.17195,	-1.36015,	-1.47917,	-1.53943,	-1.48775,	-1.39353,	-1.42541,	-1.46878,	-1.54140,	-1.61340,	-1.67305,	-1.71250,	-1.58208,	-1.36815,	-1.17911,	-0.94882,	-0.59063,	-0.37222,	-0.24556,	-0.17826,	-0.00962,	0.16991,	0.37694,	0.63079,	0.70435,	0.77977,	1.01892,	1.15222,	1.33565,	1.49137,	1.43461,	1.33569,	1.31351,	1.15900,	1.01385,	0.86873,	0.75530,	0.61204,	0.36769,	0.12834,	-0.03532,	-0.08018,	-0.01525,	0.02329,	0.02904,	0.00048,	-0.11665,	-0.27175,	-0.43074,	-0.56137,	-0.57975,	-0.56590,	-0.62942,	-0.65357,	-0.66299,	-0.62101,	-0.78908,	-0.90698,	-0.81653,	-0.79534,	-0.81823,	-0.76861,	-0.88066,	-0.96971,	-0.89523,	-0.90074,	-0.94947,	-0.97770,	-1.01067,	-0.97928,	-1.07413,	-1.13506,	-1.14566,	-1.08121,	-1.02918,	-1.01300,	-0.91440,	-0.80337,	-0.83496,	-0.86640,	-0.81383,	-0.76762,	-0.79342,	-0.77448,	-0.81117,	-0.76688,	-0.69795,	-0.44413,	-0.25698,	-0.13457,	0.09136,	0.20919,	0.20864,	0.33728,	0.33809
0.44945,	0.52266,	0.55555,	0.56818,	0.39465,	0.24000,	0.18843,	0.11783,	0.07277,	0.05674,	-0.01639,	-0.26230,	-0.35933,	-0.26900,	-0.24767,	-0.22678,	-0.31865,	-0.49789,	-0.69838,	-0.83878,	-1.03858,	-1.28355,	-1.46562,	-1.62178,	-1.79568,	-1.97840,	-2.00699,	-2.08488,	-2.18109,	-2.25133,	-2.30200,	-2.30011,	-2.21701,	-2.12158,	-2.14669,	-2.12782,	-2.08796,	-2.07059,	-1.95382,	-1.94307,	-1.98897,	-2.08243,	-2.22379,	-2.43527,	-2.56634,	-2.54938,	-2.58965,	-2.55630,	-2.40012,	-2.30484,	-2.28879,	-2.26132,	-2.19697,	-2.10030,	-1.97577,	-1.94140,	-2.02472,	-2.21754,	-2.35436,	-2.55732,	-2.73107,	-2.79873,	-2.87480,	-3.10288,	-3.40307,	-3.67311,	-3.92969,	-4.13583,	-4.31467,	-4.66610,	-4.94120,	-5.30577,	-5.48979,	-5.45384,	-5.30916,	-5.33400,	-5.32275,	-5.12818,	-4.94422,	-4.73802,	-4.51506,	-4.40686,	-4.23713,	-4.05882,	-3.91939,	-3.92528,	-3.85411,	-3.87730,	-3.92575,	-4.02602,	-3.96414,	-3.87533,	-3.81107,	-3.78356,	-3.86600,	-4.00149,	-4.00529,	-3.92040,	-3.79809,	-3.69811,	-3.52433,	-3.52469,	-3.43424,	-3.43363,	-3.48503,	-3.52178,	-3.52291,	-3.66802,	-3.69016,	-3.55873,	-3.52897,	-3.52101,	-3.40837,	-3.32779,	-3.24748,	-3.25154,	-3.25347,	-3.35112,	-3.34904,	-3.38957,	-3.39078,	-3.40683,	-3.36743,	-3.44799,	-3.59054,	-3.55833,	-3.39470,	-3.20093,	-2.93421,	-2.70661,	-2.53599,	-2.47120,	-2.27714,	-2.17607,	-1.95470,	-1.84472,	-1.73736,	-1.54431,	-1.24850,	-1.10176,	-0.99926,	-0.77037,	-0.52865,	-0.33980,	-0.14247,	-0.04125,	0.11903,	0.16480,	0.20181,	0.07842,	0.09861,	0.16013,	0.25518,	0.22851,	0.17234,	0.12035,	0.06809,	0.09577,	0.00000,	0.00000,	0.00000,	0.00000,	0.00000,	-0.33666,	-0.38497,	-0.53972,	-0.60047,	-0.71020,	-0.77775,	-0.84558,	-0.91448,	-1.10913,	-1.29577,	-1.21670,	-1.07793,	-1.02414,	-0.94254,	-0.92467,	-0.86184,	-0.85127,	-0.75691,	-0.76935,	-0.77334,	-0.90048,	-1.05794,	-1.17090,	-1.18599,	-1.10037,	-1.02817,	-0.97818,	-0.98620,	-1.14561,	-1.25084,	-1.29965,	-1.31765,	-1.47974,	-1.60129,	-1.81192,	-1.88611,	-1.92848,	-1.98889,	-2.00889,	-1.86299,	-1.75940,	-1.76564,	-1.60170,	-1.33670,	-1.23283,	-1.14918,	-1.16279,	-1.13763,	-1.16682,	-1.18998,	-1.40963,	-1.64288,	-1.74969,	-1.72966,	-1.68038,	-1.64373,	-1.62337,	-1.69860,	-1.78102,	-1.77467,	-1.73984,	-1.69179,	-1.53427,	-1.28331,	-1.01743,	-0.61713,	-0.39539,	-0.30678,	-0.25653,	-0.19055,	0.00617,	0.29563,	0.48539,	0.51575,	0.69248,	0.99172,	1.15382,	1.32626,	1.43776,	1.47195,	1.33589,	1.19259,	1.02340,	0.88515,	0.80351,	0.71153,	0.50461,	0.21103,	-0.01887,	-0.11109,	-0.05144,	0.08497,	0.10605,	0.03140,	0.00548,	-0.03531,	-0.18770,	-0.35883,	-0.51602,	-0.60148,	-0.55389,	-0.59566,	-0.53999,	-0.40215,	-0.37995,	-0.61009,	-0.76286,	-0.71393,	-0.70211,	-0.68032,	-0.73256,	-0.89315,	-0.99407,	-1.01510,	-1.00308,	-1.00420,	-0.95709,	-0.93751,	-0.97339,	-1.03792,	-1.02359,	-1.04125,	-0.98379,	-0.88079,	-0.80825,	-0.75507,	-0.70704,	-0.70271,	-0.77407,	-0.78168,	-0.70814,	-0.70453,	-0.64497,	-0.68966,	-0.62683,	-0.44125,	-0.23044,	-0.16572,	-0.00607,	0.27838,	0.36052,	0.38853,	0.51329,	0.59597
0.39478,	0.44998,	0.52167,	0.58325,	0.51821,	0.44630,	0.46597,	0.35938,	0.20774,	0.14893,	0.09174,	-0.07439,	-0.06398,	0.07578,	0.11765,	0.12568,	-0.02210,	-0.15921,	-0.33180,	-0.52324,	-0.70001,	-0.98015,	-1.26500,	-1.48865,	-1.70071,	-1.87033,	-1.87740,	-2.01496,	-2.20532,	-2.35513,	-2.34833,	-2.34257,	-2.32681,	-2.19395,	-2.20372,	-2.22241,	-2.19373,	-2.21877,	-2.09974,	-2.08154,	-2.12414,	-2.12879,	-2.18551,	-2.31943,	-2.43589,	-2.46952,	-2.56357,	-2.53581,	-2.41889,	-2.31734,	-2.25830,	-2.25249,	-2.17917,	-2.07448,	-1.97775,	-1.96703,	-2.09902,	-2.29901,	-2.35849,	-2.54138,	-2.78447,	-2.91375,	-2.86141,	-3.00294,	-3.32504,	-3.55775,	-3.79180,	-4.04845,	-4.29586,	-4.67755,	-4.93411,	-5.23233,	-5.34672,	-5.22055,	-5.03732,	-5.05972,	-5.09021,	-4.93039,	-4.77879,	-4.56541,	-4.33204,	-4.16250,	-3.93497,	-3.77587,	-3.57734,	-3.50526,	-3.44502,	-3.50323,	-3.59439,	-3.78600,	-3.74710,	-3.68656,	-3.65649,	-3.67801,	-3.66760,	-3.71813,	-3.77724,	-3.72114,	-3.58470,	-3.48183,	-3.27585,	-3.22790,	-3.12445,	-3.14034,	-3.28630,	-3.35906,	-3.37659,	-3.48893,	-3.56992,	-3.56080,	-3.62947,	-3.66199,	-3.57012,	-3.42478,	-3.19967,	-3.14631,	-3.11015,	-3.15138,	-3.16988,	-3.26647,	-3.37106,	-3.47970,	-3.38192,	-3.40787,	-3.51174,	-3.53064,	-3.31342,	-3.06798,	-2.93542,	-2.76518,	-2.56522,	-2.44904,	-2.15889,	-1.99151,	-1.77030,	-1.70456,	-1.69636,	-1.49129,	-1.16044,	-0.91963,	-0.75558,	-0.51328,	-0.32626,	-0.18635,	-0.00623,	0.09106,	0.29975,	0.29827,	0.29555,	0.16649,	0.14867,	0.21374,	0.34266,	0.29767,	0.26815,	0.21134,	0.11590,	0.00000,	0.00000,	0.00000,	0.00000,	0.00000,	0.00000,	0.00000,	0.00000,	-0.44004,	-0.48065,	-0.54145,	-0.67884,	-0.79507,	-0.86331,	-1.01824,	-1.21623,	-1.15065,	-1.02802,	-0.98347,	-0.89425,	-0.84535,	-0.67403,	-0.64749,	-0.64418,	-0.67025,	-0.69726,	-0.82481,	-0.92961,	-1.05411,	-1.02731,	-0.94326,	-0.94884,	-1.04338,	-1.09429,	-1.13668,	-1.23849,	-1.33163,	-1.33839,	-1.54786,	-1.67258,	-1.79875,	-1.81038,	-1.78149,	-1.87466,	-1.93053,	-1.81386,	-1.68809,	-1.66612,	-1.51156,	-1.31675,	-1.27960,	-1.22383,	-1.30055,	-1.22685,	-1.18452,	-1.17704,	-1.31749,	-1.56533,	-1.73960,	-1.79352,	-1.89086,	-1.89645,	-1.84676,	-1.88359,	-1.97016,	-1.91643,	-1.73888,	-1.70619,	-1.62636,	-1.34644,	-1.08204,	-0.74143,	-0.55766,	-0.49082,	-0.44051,	-0.44215,	-0.27411,	0.04641,	0.26629,	0.31462,	0.51105,	0.81739,	0.96506,	1.11320,	1.22213,	1.36392,	1.33157,	1.20755,	1.07574,	0.92371,	0.77201,	0.62397,	0.35273,	0.05276,	-0.07825,	-0.09512,	-0.05874,	0.04275,	0.12733,	0.06225,	0.00967,	0.02970,	-0.08571,	-0.25229,	-0.38707,	-0.47798,	-0.39394,	-0.42427,	-0.37943,	-0.20886,	-0.14568,	-0.33910,	-0.54354,	-0.57637,	-0.62110,	-0.59871,	-0.68664,	-0.82819,	-0.89184,	-0.96075,	-0.94986,	-0.92562,	-0.86238,	-0.79652,	-0.81559,	-0.86412,	-0.79059,	-0.80521,	-0.80532,	-0.75659,	-0.61529,	-0.59272,	-0.67737,	-0.68436,	-0.77170,	-0.81703,	-0.70755,	-0.65346,	-0.56500,	-0.62914,	-0.60422,	-0.39218,	-0.19494,	-0.15648,	-0.01197,	0.27123,	0.38900,	0.49013,	0.63955,	0.77781
0.38543,	0.36498,	0.48486,	0.59319,	0.57897,	0.60285,	0.61956,	0.49972,	0.37275,	0.25879,	0.22160,	0.20079,	0.30077,	0.43599,	0.49957,	0.55678,	0.40548,	0.19885,	0.02898,	-0.16884,	-0.38353,	-0.68410,	-1.01752,	-1.36013,	-1.60067,	-1.70337,	-1.76236,	-1.91746,	-2.13723,	-2.34268,	-2.36405,	-2.34190,	-2.27351,	-2.20513,	-2.17061,	-2.17134,	-2.22599,	-2.29748,	-2.27222,	-2.25278,	-2.18252,	-2.13578,	-2.16117,	-2.21368,	-2.31459,	-2.38251,	-2.50332,	-2.45807,	-2.40431,	-2.41701,	-2.35941,	-2.29396,	-2.20821,	-2.05320,	-1.96371,	-2.06830,	-2.28984,	-2.43004,	-2.46259,	-2.56546,	-2.75814,	-2.92176,	-2.89097,	-2.99392,	-3.15893,	-3.42001,	-3.67407,	-3.98039,	-4.38838,	-4.76277,	-4.98004,	-5.15384,	-5.09551,	-4.94952,	-4.81830,	-4.77829,	-4.80962,	-4.69378,	-4.57955,	-4.32554,	-4.08357,	-3.93839,	-3.70475,	-3.47678,	-3.27648,	-3.14947,	-3.09952,	-3.24749,	-3.38680,	-3.48545,	-3.41876,	-3.31931,	-3.29171,	-3.37985,	-3.37278,	-3.43207,	-3.39906,	-3.43057,	-3.37206,	-3.23791,	-3.10334,	-3.01548,	-2.91884,	-2.98433,	-3.10853,	-3.20020,	-3.31389,	-3.40081,	-3.56187,	-3.66908,	-3.80049,	-3.77015,	-3.60840,	-3.42094,	-3.16489,	-3.01650,	-3.01772,	-3.04988,	-3.07144,	-3.24772,	-3.44407,	-3.49631,	-3.37505,	-3.30078,	-3.29294,	-3.36422,	-3.21729,	-3.12048,	-2.98449,	-2.82936,	-2.60882,	-2.32878,	-2.04315,	-1.87336,	-1.64973,	-1.59132,	-1.52519,	-1.28057,	-1.01719,	-0.70255,	-0.49230,	-0.24280,	-0.09533,	0.06573,	0.23715,	0.27220,	0.37839,	0.38466,	0.34256,	0.25311,	0.29879,	0.34922,	0.40594,	0.43510,	0.45740,	0.43657,	0.35749,	0.00000,	0.00000,	0.00000,	0.00000,	0.00000,	0.00000,	0.00000,	0.00000,	0.00000,	0.00000,	0.00000,	-0.59980,	-0.70151,	-0.84093,	-0.93765,	-1.07452,	-0.99812,	-0.92495,	-0.87632,	-0.80586,	-0.78050,	-0.64348,	-0.54182,	-0.56176,	-0.60257,	-0.62975,	-0.74294,	-0.86539,	-0.93643,	-0.88779,	-0.85637,	-0.88364,	-1.04910,	-1.12934,	-1.20544,	-1.24388,	-1.33901,	-1.42413,	-1.56081,	-1.69958,	-1.82267,	-1.77294,	-1.72967,	-1.77375,	-1.76032,	-1.72921,	-1.60626,	-1.56303,	-1.46051,	-1.40184,	-1.40757,	-1.34377,	-1.41104,	-1.34437,	-1.20542,	-1.16006,	-1.24354,	-1.42799,	-1.62501,	-1.83510,	-2.04787,	-2.09621,	-2.06326,	-2.02185,	-2.06163,	-2.00124,	-1.87698,	-1.79494,	-1.66271,	-1.45086,	-1.16367,	-0.93560,	-0.88723,	-0.82636,	-0.78980,	-0.72611,	-0.45238,	-0.19433,	-0.01285,	0.05034,	0.25160,	0.54845,	0.74410,	0.96265,	1.10163,	1.23026,	1.31681,	1.27325,	1.12534,	0.94673,	0.69989,	0.41036,	0.13615,	-0.04395,	-0.08798,	-0.02867,	-0.02212,	0.01787,	0.05436,	0.03086,	0.06941,	0.05892,	0.01691,	-0.11840,	-0.29280,	-0.34285,	-0.25513,	-0.23680,	-0.11828,	-0.02792,	-0.00215,	-0.12218,	-0.30097,	-0.36113,	-0.44127,	-0.39896,	-0.48861,	-0.66769,	-0.70808,	-0.76816,	-0.83876,	-0.82090,	-0.75084,	-0.73200,	-0.71962,	-0.65732,	-0.56554,	-0.51696,	-0.51052,	-0.53033,	-0.47056,	-0.53082,	-0.60006,	-0.67511,	-0.72961,	-0.71602,	-0.65975,	-0.58819,	-0.54534,	-0.63891,	-0.55930,	-0.38671,	-0.25411,	-0.16877,	-0.03337,	0.23238,	0.41357,	0.64508,	0.82793,	0.90618
0.53788,	0.44951,	0.51319,	0.58220,	0.64357,	0.78000,	0.77136,	0.61210,	0.49438,	0.36888,	0.37843,	0.48386,	0.62914,	0.70919,	0.71014,	0.79166,	0.69230,	0.43627,	0.19926,	-0.02070,	-0.23646,	-0.55029,	-0.85505,	-1.18708,	-1.46982,	-1.53581,	-1.66623,	-1.90495,	-2.09730,	-2.26327,	-2.25569,	-2.18383,	-2.10390,	-2.14761,	-2.13978,	-2.14819,	-2.20368,	-2.22721,	-2.26098,	-2.23786,	-2.12145,	-2.13213,	-2.20452,	-2.23088,	-2.28050,	-2.33585,	-2.52803,	-2.54194,	-2.53322,	-2.57436,	-2.53980,	-2.48116,	-2.38390,	-2.22398,	-2.10115,	-2.15783,	-2.44685,	-2.55695,	-2.59876,	-2.69056,	-2.74730,	-2.86085,	-2.87553,	-2.92383,	-2.95612,	-3.24113,	-3.55703,	-3.98258,	-4.46771,	-4.72030,	-4.84508,	-4.89798,	-4.78828,	-4.74623,	-4.70513,	-4.62344,	-4.61576,	-4.52098,	-4.45802,	-4.18224,	-3.89772,	-3.74297,	-3.58509,	-3.41086,	-3.19450,	-2.98580,	-2.86007,	-2.89440,	-3.06681,	-3.12105,	-3.03388,	-3.00850,	-2.99304,	-3.10463,	-3.12151,	-3.12122,	-2.99176,	-3.07142,	-3.08213,	-2.97809,	-2.91270,	-2.78968,	-2.73716,	-2.84997,	-2.95845,	-3.11971,	-3.35360,	-3.49719,	-3.71527,	-3.82396,	-3.96805,	-3.90097,	-3.66803,	-3.44197,	-3.22736,	-3.11981,	-3.13671,	-3.12774,	-3.11084,	-3.12665,	-3.33060,	-3.41855,	-3.35624,	-3.33725,	-3.23685,	-3.26230,	-3.19094,	-3.18393,	-3.00355,	-2.80248,	-2.51202,	-2.14060,	-1.92089,	-1.73841,	-1.51349,	-1.42090,	-1.29854,	-1.10932,	-0.92047,	-0.56919,	-0.31905,	-0.05072,	0.01078,	0.11920,	0.30743,	0.38131,	0.42418,	0.34818,	0.27202,	0.24783,	0.38192,	0.57776,	0.57088,	0.53383,	0.55565,	0.48420,	0.00000,	0.00000,	0.00000,	0.00000,	0.00000,	0.00000,	0.00000,	0.00000,	0.00000,	0.00000,	0.00000,	0.00000,	0.00000,	0.00000,	0.00000,	-0.81262,	-0.91290,	-0.83677,	-0.84456,	-0.86797,	-0.81020,	-0.74398,	-0.63943,	-0.53533,	-0.55112,	-0.61903,	-0.68327,	-0.64683,	-0.72350,	-0.82984,	-0.83327,	-0.97538,	-1.02438,	-1.10800,	-1.11885,	-1.15970,	-1.18689,	-1.33246,	-1.49019,	-1.58323,	-1.75139,	-1.84931,	-1.72447,	-1.63635,	-1.62622,	-1.62062,	-1.71857,	-1.65136,	-1.58686,	-1.46271,	-1.49000,	-1.58518,	-1.53872,	-1.53668,	-1.45491,	-1.34714,	-1.33876,	-1.41933,	-1.54811,	-1.59169,	-1.80404,	-2.13064,	-2.23901,	-2.30575,	-2.29358,	-2.28938,	-2.21755,	-2.09072,	-1.91254,	-1.72799,	-1.59235,	-1.35426,	-1.23835,	-1.20437,	-1.08240,	-1.03103,	-0.92230,	-0.65013,	-0.50313,	-0.39115,	-0.30315,	-0.03930,	0.27476,	0.51545,	0.79561,	0.96004,	1.04924,	1.13982,	1.12679,	0.96426,	0.73576,	0.50321,	0.25367,	-0.01020,	-0.07751,	-0.12680,	-0.14938,	-0.16112,	-0.11362,	-0.04105,	0.01623,	0.11193,	0.09784,	0.13027,	0.00609,	-0.17093,	-0.17294,	-0.08187,	0.00251,	0.17694,	0.17283,	0.12577,	0.02955,	-0.08122,	-0.12688,	-0.28476,	-0.29880,	-0.40749,	-0.58371,	-0.63426,	-0.71366,	-0.82312,	-0.80746,	-0.65689,	-0.57804,	-0.62939,	-0.55448,	-0.49168,	-0.45267,	-0.39051,	-0.40334,	-0.39468,	-0.44289,	-0.43761,	-0.53270,	-0.56010,	-0.56039,	-0.56700,	-0.46313,	-0.46322,	-0.55573,	-0.44845,	-0.36054,	-0.26456,	-0.16532,	-0.06980,	0.15344,	0.33697,	0.63339,	0.84880,	0.88414
0.72723,	0.58736,	0.60068,	0.64306,	0.70595,	0.80936,	0.83057,	0.69232,	0.54932,	0.53155,	0.67498,	0.85110,	0.85247,	0.76141,	0.71007,	0.81219,	0.73221,	0.43139,	0.22653,	0.03096,	-0.22878,	-0.57156,	-0.86382,	-1.09844,	-1.32539,	-1.45752,	-1.57944,	-1.74998,	-1.95445,	-2.20427,	-2.21797,	-2.08756,	-2.07932,	-2.21722,	-2.21220,	-2.15526,	-2.15970,	-2.16591,	-2.14012,	-2.05141,	-2.02917,	-2.10408,	-2.16568,	-2.14832,	-2.19407,	-2.32423,	-2.55591,	-2.63336,	-2.66488,	-2.67338,	-2.54416,	-2.43184,	-2.39560,	-2.31772,	-2.21040,	-2.16993,	-2.37949,	-2.53361,	-2.59946,	-2.57052,	-2.55320,	-2.75073,	-2.85975,	-2.83322,	-2.87175,	-3.18568,	-3.51946,	-3.93082,	-4.34016,	-4.53120,	-4.56158,	-4.53101,	-4.60662,	-4.70150,	-4.65227,	-4.48681,	-4.45221,	-4.49113,	-4.45230,	-4.15826,	-3.85774,	-3.71287,	-3.54559,	-3.32309,	-3.11608,	-2.86272,	-2.63218,	-2.50171,	-2.59573,	-2.71684,	-2.70526,	-2.65350,	-2.68184,	-2.93187,	-3.03679,	-2.89939,	-2.73631,	-2.80282,	-2.78811,	-2.64991,	-2.60853,	-2.58629,	-2.60536,	-2.66749,	-2.84692,	-3.09383,	-3.34055,	-3.50560,	-3.73009,	-3.88706,	-3.98037,	-3.86884,	-3.62556,	-3.44960,	-3.24983,	-3.08861,	-3.10707,	-3.08445,	-3.03768,	-2.89390,	-3.00050,	-3.20686,	-3.30786,	-3.27586,	-3.16007,	-3.25074,	-3.30735,	-3.21911,	-2.95049,	-2.68521,	-2.30520,	-1.89548,	-1.77397,	-1.69062,	-1.50788,	-1.27866,	-1.18390,	-1.12794,	-0.92988,	-0.52640,	-0.24861,	-0.11187,	-0.11464,	-0.01869,	0.19440,	0.31557,	0.42021,	0.43106,	0.32763,	0.28132,	0.42852,	0.70052,	0.00000,	0.56798,	0.00000,	0.00000,	0.00000,	0.00000,	0.00000,	0.00000,	0.00000,	0.00000,	0.00000,	0.00000,	0.00000,	0.00000,	0.00000,	0.00000,	0.00000,	0.00000,	0.00000,	0.00000,	-0.53211,	-0.62876,	-0.73919,	-0.80552,	-0.73686,	-0.65907,	-0.56204,	-0.34483,	-0.36170,	-0.53247,	-0.66266,	-0.57014,	-0.56434,	-0.72139,	-0.89003,	-1.04047,	-0.99261,	-1.03360,	-1.08341,	-1.10424,	-1.20482,	-1.46327,	-1.64715,	-1.65765,	-1.79957,	-1.94154,	-1.86444,	-1.67093,	-1.64313,	-1.75309,	-1.86068,	-1.74846,	-1.62007,	-1.54045,	-1.60236,	-1.71934,	-1.69932,	-1.71459,	-1.66373,	-1.51405,	-1.54583,	-1.71188,	-1.81495,	-1.73853,	-1.82224,	-2.12709,	-2.35733,	-2.44865,	-2.43778,	-2.51147,	-2.56468,	-2.39451,	-2.10055,	-1.92304,	-1.82465,	-1.58964,	-1.44209,	-1.34565,	-1.22307,	-1.08032,	-0.96465,	-0.85942,	-0.75264,	-0.60340,	-0.42440,	-0.17451,	0.09287,	0.39140,	0.69433,	0.80354,	0.82737,	0.96995,	0.97993,	0.74714,	0.46858,	0.29518,	0.23510,	0.07269,	-0.04153,	-0.16400,	-0.25624,	-0.35223,	-0.39844,	-0.26275,	-0.09387,	-0.03491,	-0.04776,	0.06712,	0.01031,	-0.15414,	-0.19674,	-0.03271,	0.14977,	0.29062,	0.30891,	0.30373,	0.24262,	0.09536,	-0.06239,	-0.27138,	-0.34595,	-0.51565,	-0.68259,	-0.62981,	-0.62727,	-0.74637,	-0.73483,	-0.54705,	-0.39761,	-0.47374,	-0.52758,	-0.49299,	-0.34615,	-0.26600,	-0.37171,	-0.40048,	-0.29892,	-0.22215,	-0.29087,	-0.26508,	-0.25653,	-0.32278,	-0.30132,	-0.29285,	-0.29259,	-0.26886,	-0.24128,	-0.08714,	0.02392,	0.01097,	0.04715,	0.19610,	0.49881,	0.69818,	0.70389
0.84953,	0.68670,	0.64039,	0.63614,	0.73140,	0.83501,	0.81646,	0.67810,	0.65666,	0.79918,	0.91921,	1.02733,	1.03336,	0.93392,	0.85581,	0.95419,	0.87211,	0.55156,	0.28885,	0.00782,	-0.22767,	-0.51018,	-0.86591,	-1.13953,	-1.23274,	-1.32124,	-1.48019,	-1.63318,	-1.78168,	-2.03909,	-2.20402,	-2.15505,	-2.15304,	-2.27518,	-2.27090,	-2.21344,	-2.15313,	-2.10162,	-2.08147,	-2.01744,	-1.96465,	-1.92177,	-2.00336,	-2.03285,	-1.99149,	-2.06600,	-2.31965,	-2.43353,	-2.48862,	-2.49290,	-2.38424,	-2.34543,	-2.31485,	-2.20016,	-2.16957,	-2.22291,	-2.30441,	-2.36424,	-2.47162,	-2.42368,	-2.35395,	-2.52502,	-2.74287,	-2.77885,	-2.81156,	-3.09149,	-3.42792,	-3.82011,	-4.11337,	-4.22051,	-4.27432,	-4.33721,	-4.49659,	-4.52086,	-4.49114,	-4.37908,	-4.26702,	-4.24807,	-4.23457,	-3.96646,	-3.67520,	-3.53193,	-3.36461,	-3.18171,	-2.95477,	-2.58562,	-2.33789,	-2.28399,	-2.28168,	-2.32702,	-2.42407,	-2.41091,	-2.42307,	-2.62321,	-2.81297,	-2.73555,	-2.56283,	-2.57179,	-2.54237,	-2.43572,	-2.37848,	-2.32285,	-2.39048,	-2.51673,	-2.72458,	-2.88038,	-3.14607,	-3.42646,	-3.60487,	-3.65401,	-3.72212,	-3.59973,	-3.36469,	-3.21938,	-3.05095,	-2.95886,	-2.97028,	-2.83498,	-2.78969,	-2.77118,	-2.84871,	-2.98883,	-3.18400,	-3.19201,	-3.06714,	-3.08549,	-3.22376,	-3.17381,	-2.83133,	-2.48678,	-2.09370,	-1.76984,	-1.71057,	-1.60400,	-1.45589,	-1.25938,	-1.19220,	-1.06579,	-0.88142,	-0.61098,	-0.32960,	-0.12773,	-0.12550,	-0.01635,	0.20548,	0.35019,	0.48516,	0.45769,	0.33592,	0.00000,	0.00000,	0.00000,	0.00000,	0.00000,	0.00000,	0.00000,	0.00000,	0.00000,	0.00000,	0.00000,	0.00000,	0.00000,	0.00000,	0.00000,	0.00000,	0.00000,	0.00000,	0.00000,	0.00000,	0.00000,	0.00000,	0.00000,	0.00000,	-0.24980,	-0.39268,	-0.49333,	-0.43656,	-0.37147,	-0.29985,	-0.15494,	-0.24361,	-0.37131,	-0.49519,	-0.54919,	-0.56398,	-0.61184,	-0.83132,	-0.99462,	-0.88628,	-0.82074,	-0.92514,	-1.11123,	-1.29602,	-1.54930,	-1.72151,	-1.74958,	-1.90415,	-2.01779,	-1.99523,	-1.87522,	-1.88860,	-1.92217,	-1.93114,	-1.86569,	-1.73370,	-1.55125,	-1.58346,	-1.71524,	-1.72669,	-1.79891,	-1.81874,	-1.74716,	-1.83092,	-1.91274,	-1.93246,	-1.94273,	-2.04229,	-2.19962,	-2.43792,	-2.59017,	-2.58376,	-2.58548,	-2.66412,	-2.58634,	-2.28583,	-2.06428,	-1.94645,	-1.74112,	-1.58867,	-1.40355,	-1.26438,	-1.15776,	-1.09859,	-0.97874,	-0.80133,	-0.70803,	-0.52873,	-0.17398,	0.12820,	0.41711,	0.68422,	0.75300,	0.75062,	0.84671,	0.80316,	0.61947,	0.40577,	0.19367,	0.14010,	0.12561,	0.01715,	0.00000,	0.00000,	0.00000,	0.00000,	-0.42131,	-0.26881,	-0.19510,	-0.19782,	-0.10166,	-0.15729,	-0.24518,	-0.22963,	-0.06293,	0.10514,	0.30585,	0.45301,	0.40980,	0.28915,	0.18016,	0.01440,	-0.22442,	-0.31336,	-0.47942,	-0.61916,	-0.56672,	-0.59183,	-0.64921,	-0.55619,	-0.44183,	-0.38653,	-0.36505,	-0.37854,	-0.39907,	-0.22175,	-0.06626,	-0.13180,	-0.24341,	-0.14232,	-0.00281,	-0.02046,	-0.00075,	-0.03567,	-0.09326,	-0.06669,	-0.10387,	-0.14230,	-0.12422,	-0.01983,	0.06987,	0.04648,	0.03397,	0.07711,	0.19022,	0.47863,	0.67464,	0.70204
0.96760,	0.79594,	0.65983,	0.69709,	0.84577,	0.93212,	0.82445,	0.74908,	0.91661,	1.06777,	1.07295,	1.08441,	1.11468,	1.05623,	0.98672,	1.07947,	0.98067,	0.61727,	0.29260,	0.02728,	-0.17667,	-0.40657,	-0.75101,	-1.08714,	-1.14521,	-1.21081,	-1.39167,	-1.62815,	-1.78371,	-1.96683,	-2.18370,	-2.24189,	-2.26324,	-2.29856,	-2.31502,	-2.20080,	-2.05850,	-1.99760,	-2.04269,	-1.99754,	-1.80792,	-1.71189,	-1.83402,	-1.90990,	-1.81739,	-1.82844,	-2.06378,	-2.16195,	-2.24525,	-2.34314,	-2.33928,	-2.31273,	-2.27033,	-2.13167,	-2.12014,	-2.27687,	-2.29344,	-2.25919,	-2.32899,	-2.34631,	-2.33550,	-2.41035,	-2.60707,	-2.69057,	-2.77372,	-2.98924,	-3.36538,	-3.66200,	-3.79793,	-3.88569,	-4.02549,	-4.19666,	-4.27053,	-4.26611,	-4.30847,	-4.27623,	-4.12474,	-4.01262,	-3.98101,	-3.69276,	-3.39509,	-3.27216,	-3.12831,	-2.92364,	-2.67580,	-2.29507,	-2.04972,	-2.09535,	-2.04911,	-2.04339,	-2.18486,	-2.25697,	-2.31814,	-2.36132,	-2.49416,	-2.45178,	-2.36027,	-2.30908,	-2.33471,	-2.24397,	-2.10147,	-2.00702,	-2.10222,	-2.32150,	-2.44227,	-2.56360,	-2.90317,	-3.28252,	-3.45878,	-3.45346,	-3.52472,	-3.38048,	-3.14632,	-3.03331,	-2.92981,	-2.84297,	-2.79788,	-2.62022,	-2.55591,	-2.68554,	-2.81769,	-2.92632,	-3.11091,	-3.15849,	-3.10392,	-3.00103,	-3.08447,	-2.98162,	-2.66479,	-2.26354,	-1.94740,	-1.70678,	-1.57893,	-1.43037,	-1.30345,	-1.21386,	-1.06526,	-0.87760,	-0.78215,	-0.65745,	-0.40050,	-0.12298,	-0.08723,	0.05629,	0.26291,	0.36175,	0.43222,	0.40315,	0.00000,	0.00000,	0.00000,	0.00000,	0.00000,	0.00000,	0.00000,	0.00000,	0.00000,	0.00000,	0.00000,	0.00000,	0.00000,	0.00000,	0.00000,	0.00000,	0.00000,	0.00000,	0.00000,	0.00000,	0.00000,	0.00000,	0.00000,	0.00000,	0.00000,	0.04223,	-0.10209,	-0.19214,	-0.13832,	-0.10606,	-0.11226,	-0.05043,	-0.15589,	-0.27647,	-0.35918,	-0.50928,	-0.57876,	-0.57578,	-0.76104,	-0.89297,	-0.85930,	-0.76759,	-0.88066,	-1.11881,	-1.40073,	-1.60489,	-1.76829,	-1.86642,	-1.94915,	-2.01141,	-2.02871,	-2.05134,	-2.02442,	-1.92627,	-1.92430,	-1.94681,	-1.85012,	-1.61891,	-1.64408,	-1.75514,	-1.77328,	-1.91906,	-2.07195,	-2.07889,	-2.10080,	-2.08016,	-2.00656,	-2.08134,	-2.25665,	-2.36184,	-2.56747,	-2.72996,	-2.80271,	-2.73968,	-2.72730,	-2.62830,	-2.39379,	-2.14642,	-1.99428,	-1.85694,	-1.65457,	-1.42284,	-1.29873,	-1.30038,	-1.22418,	-0.98693,	-0.83060,	-0.82289,	-0.65563,	-0.22277,	0.11732,	0.39115,	0.00000,	0.00000,	0.00000,	0.00000,	0.00000,	0.00000,	0.00000,	0.00000,	0.00000,	0.00000,	0.00000,	0.00000,	0.00000,	0.00000,	0.00000,	0.00000,	0.00000,	-0.32272,	-0.29008,	-0.26275,	-0.23605,	-0.18756,	-0.10967,	-0.00840,	0.13779,	0.43444,	0.56481,	0.43506,	0.25823,	0.15450,	-0.01674,	-0.25041,	-0.29517,	-0.40176,	-0.53835,	-0.53363,	-0.52074,	-0.52699,	-0.39543,	-0.32160,	-0.37081,	-0.28972,	-0.24131,	-0.25615,	-0.15045,	-0.00528,	0.06082,	-0.01164,	0.03906,	0.13214,	0.16282,	0.10854,	0.10927,	0.14451,	0.17224,	0.07177,	-0.00182,	0.12344,	0.21632,	0.16343,	-0.00817,	-0.03007,	0.05167,	0.15137,	0.44789,	0.64672,	0.67443
1.07801,	0.88279,	0.69314,	0.76590,	0.85257,	0.84047,	0.76931,	0.87306,	1.09053,	1.10989,	1.11861,	1.15461,	1.13599,	1.05359,	0.95557,	0.98731,	0.91318,	0.58021,	0.27335,	0.08994,	-0.12185,	-0.32951,	-0.50690,	-0.76730,	-0.92404,	-1.12865,	-1.33031,	-1.52519,	-1.72244,	-1.93890,	-2.20002,	-2.33573,	-2.38450,	-2.34948,	-2.36268,	-2.20493,	-2.07535,	-2.07514,	-2.07324,	-1.94149,	-1.75414,	-1.75236,	-1.78075,	-1.72242,	-1.68198,	-1.75878,	-1.97752,	-2.06371,	-2.12134,	-2.29822,	-2.41368,	-2.39983,	-2.41579,	-2.32460,	-2.24354,	-2.28685,	-2.25506,	-2.20734,	-2.18992,	-2.15104,	-2.23530,	-2.36130,	-2.52498,	-2.62175,	-2.79390,	-3.01347,	-3.39844,	-3.53793,	-3.57968,	-3.78430,	-3.98236,	-4.10274,	-4.10261,	-4.17432,	-4.18518,	-4.04650,	-3.92053,	-3.83359,	-3.76082,	-3.45410,	-3.08692,	-2.89447,	-2.73906,	-2.53818,	-2.39322,	-2.18709,	-1.95134,	-1.83194,	-1.71481,	-1.75248,	-1.93234,	-1.97880,	-2.08339,	-2.10549,	-2.17950,	-2.14387,	-2.15368,	-2.09519,	-2.15722,	-2.07165,	-1.92748,	-1.93154,	-2.01365,	-2.14332,	-2.22447,	-2.46920,	-2.79215,	-3.00043,	-3.19388,	-3.34508,	-3.48809,	-3.41376,	-3.17548,	-3.01735,	-2.95400,	-2.82192,	-2.73205,	-2.61586,	-2.52385,	-2.55978,	-2.72177,	-2.90766,	-3.07328,	-3.03856,	-3.04779,	-2.98664,	-3.00187,	-2.76150,	-2.48669,	-2.15716,	-1.97770,	-1.77818,	-1.55073,	-1.43602,	-1.30811,	-1.15925,	-0.93996,	-0.84016,	-0.77813,	-0.51907,	-0.25333,	-0.04458,	0.00600,	0.06532,	0.19733,	0.24020,	0.23223,	0.00000,	0.00000,	0.00000,	0.00000,	0.00000,	0.00000,	0.00000,	0.00000,	0.00000,	0.00000,	0.00000,	0.00000,	0.24821,	0.21902,	0.00000,	0.00000,	0.00000,	0.00000,	0.00000,	0.00000,	0.00000,	0.00000,	0.00000,	0.00000,	0.00000,	0.00000,	0.00000,	0.01584,	-0.10616,	-0.03586,	0.03830,	-0.02526,	0.00233,	-0.11641,	-0.33695,	-0.40714,	-0.44319,	-0.49210,	-0.54517,	-0.71567,	-0.68636,	-0.70489,	-0.80373,	-1.04499,	-1.28020,	-1.57399,	-1.75169,	-1.92619,	-2.06515,	-2.06491,	-2.14418,	-2.18805,	-2.14400,	-1.99787,	-1.90068,	-1.93464,	-1.88129,	-1.78846,	-1.72866,	-1.82070,	-1.90779,	-1.90143,	-2.05048,	-2.33121,	-2.37918,	-2.31584,	-2.28486,	0.00000,	0.00000,	0.00000,	0.00000,	0.00000,	-2.76118,	-2.86182,	-2.87470,	-2.86028,	-2.71116,	-2.53745,	-2.32364,	-2.15897,	-2.03335,	-1.78408,	-1.64304,	-1.60881,	-1.58363,	-1.39533,	-1.16052,	-1.09564,	-0.96297,	0.00000,	0.00000,	0.00000,	0.00000,	0.00000,	0.00000,	0.00000,	0.00000,	0.00000,	0.00000,	0.00000,	0.00000,	0.00000,	0.00000,	0.00000,	0.00000,	0.00000,	0.00000,	0.00000,	0.00000,	0.00000,	0.00000,	-0.42804,	-0.39574,	-0.23474,	-0.08867,	-0.02085,	0.06149,	0.22855,	0.42036,	0.41185,	0.40876,	0.38797,	0.19985,	-0.10572,	-0.36130,	-0.37086,	-0.36237,	-0.47500,	-0.51299,	-0.44533,	-0.45330,	-0.36161,	-0.25382,	-0.25270,	-0.19559,	-0.19467,	-0.17015,	-0.06374,	-0.00767,	0.06030,	0.06627,	0.09580,	0.06643,	0.05817,	-0.06039,	0.01723,	0.10662,	0.06298,	0.01605,	0.08627,	0.25087,	0.21762,	0.17105,	0.07866,	-0.01802,	-0.04382,	-0.00649,	0.22526,	0.44164,	0.52972
1.15774,	1.02325,	0.85303,	0.77253,	0.81697,	0.88202,	0.81976,	0.88815,	1.04563,	1.08995,	1.13750,	1.12948,	1.13984,	1.14174,	1.06421,	0.96636,	0.82888,	0.59766,	0.31112,	0.08913,	-0.03921,	-0.22177,	-0.39817,	-0.61036,	-0.81200,	-1.12063,	-1.36730,	-1.50014,	-1.66495,	-1.84307,	-2.10598,	-2.29101,	-2.38088,	-2.33193,	-2.34064,	-2.36543,	-2.30164,	-2.18459,	-2.13884,	-2.08793,	-1.98744,	-1.93486,	-1.84018,	-1.78031,	-1.77834,	-1.80092,	-1.93945,	-2.06870,	-2.15320,	-2.29057,	-2.45891,	-2.54724,	-2.54273,	-2.46709,	-2.46020,	-2.44579,	-2.38026,	-2.33284,	-2.27242,	-2.16875,	-2.20352,	-2.27572,	-2.39924,	-2.51767,	-2.73099,	-2.95570,	-3.24078,	-3.43580,	-3.53134,	-3.66649,	-3.86328,	-4.01197,	-3.97476,	-3.94807,	-3.84427,	-3.73024,	-3.64177,	-3.46801,	-3.32026,	-3.08636,	-2.77681,	-2.50538,	-2.31966,	-2.24496,	-2.16589,	-2.05443,	-1.93636,	-1.69811,	-1.46832,	-1.47818,	-1.65858,	-1.68107,	-1.75443,	-1.75031,	-1.82692,	-1.86050,	-1.93496,	-1.91369,	-1.90456,	-1.95806,	-1.95763,	-1.91188,	-1.95202,	-2.12141,	-2.26161,	-2.47768,	-2.66701,	-2.81299,	-3.00304,	-3.13629,	-3.27597,	-3.31677,	-3.19087,	-3.00025,	-2.91259,	-2.85058,	-2.77812,	-2.66854,	-2.67613,	-2.67706,	-2.75609,	-2.92309,	-3.07623,	-2.98417,	-2.94309,	-2.83204,	-2.75929,	-2.50127,	-2.30040,	-2.12077,	-1.95423,	-1.82402,	-1.61857,	-1.38115,	-1.17864,	-1.08030,	-0.91891,	-0.81180,	-0.68139,	-0.42353,	-0.21449,	0.02544,	0.13999,	0.08978,	0.05237,	0.02587,	0.00000,	0.00000,	0.00000,	0.00000,	0.00000,	0.00000,	0.00000,	0.00000,	0.00000,	0.00000,	0.00000,	0.25315,	0.16002,	0.16333,	0.08895,	0.08664,	0.14254,	0.14083,	0.00000,	0.00000,	0.00000,	0.00000,	0.00000,	0.00000,	0.00000,	0.00000,	0.00000,	0.00000,	0.00000,	0.02080,	-0.05692,	-0.03828,	-0.08062,	-0.10045,	-0.22261,	-0.37684,	-0.50328,	-0.52887,	-0.48170,	-0.50857,	-0.66639,	-0.59747,	-0.66326,	-0.87183,	-1.16071,	-1.38228,	-1.62104,	-1.82848,	-1.94255,	-2.10240,	-2.20570,	-2.22876,	-2.19310,	-2.16642,	-2.06243,	-1.96556,	-1.90125,	-1.82365,	-1.82871,	-1.85250,	-1.89037,	0.00000,	0.00000,	0.00000,	0.00000,	0.00000,	0.00000,	0.00000,	0.00000,	0.00000,	0.00000,	0.00000,	0.00000,	0.00000,	0.00000,	-3.04061,	-2.98074,	-2.82581,	-2.70545,	-2.57950,	-2.37072,	-2.19853,	-2.04093,	-1.90594,	-1.78388,	0.00000,	0.00000,	0.00000,	0.00000,	0.00000,	0.00000,	0.00000,	0.00000,	0.00000,	0.00000,	0.00000,	0.00000,	0.00000,	0.00000,	0.00000,	0.00000,	0.00000,	0.00000,	0.00000,	0.00000,	0.00000,	0.00000,	0.00000,	0.00000,	0.00000,	0.00000,	0.00000,	0.00000,	0.00000,	-0.34545,	-0.14622,	0.05554,	0.09582,	0.12250,	0.17317,	0.23964,	0.42003,	0.44229,	0.25151,	-0.00679,	-0.21173,	-0.28811,	-0.36238,	-0.47527,	-0.54097,	-0.51346,	-0.43790,	-0.37385,	-0.37337,	-0.35650,	-0.30157,	-0.33733,	-0.32665,	-0.23252,	-0.19170,	-0.07492,	0.00890,	0.05002,	-0.05454,	-0.10676,	-0.18655,	-0.20948,	-0.13916,	-0.06482,	-0.08221,	-0.08413,	0.02265,	0.05611,	0.14943,	0.07898,	-0.06583,	-0.07702,	-0.01968,	0.10728,	0.22788,	0.36791
1.18539,	1.14317,	1.06111,	0.91938,	0.86267,	0.93081,	0.91153,	0.94185,	1.01350,	1.10070,	1.15577,	1.08308,	1.09085,	1.13404,	1.15488,	1.04451,	0.88401,	0.74131,	0.47672,	0.19789,	0.06082,	-0.16016,	-0.38646,	-0.56721,	-0.76661,	-1.11659,	-1.37656,	-1.51445,	-1.70548,	-1.87504,	-2.10081,	-2.29690,	-2.40518,	-2.35110,	-2.33546,	-2.42945,	-2.47744,	-2.36889,	-2.27395,	-2.24103,	-2.20671,	-2.11041,	-1.97219,	-1.98678,	-2.00720,	-1.97449,	-1.98864,	-2.08336,	-2.16311,	-2.18927,	-2.32383,	-2.43974,	-2.44794,	-2.45081,	-2.53842,	-2.54144,	-2.51582,	-2.52106,	-2.44725,	-2.32339,	-2.29911,	-2.31056,	-2.38018,	-2.47965,	-2.65640,	-2.80545,	-2.96168,	-3.14562,	-3.34556,	-3.48637,	-3.59566,	-3.66678,	-3.61470,	-3.53261,	-3.37458,	-3.35542,	-3.30344,	-3.08977,	-2.88745,	-2.68556,	-2.46832,	-2.15973,	-1.95865,	-1.92140,	-1.87989,	-1.85083,	-1.80749,	-1.54670,	-1.28086,	-1.29031,	-1.44636,	-1.47738,	-1.54559,	-1.56529,	-1.65349,	-1.71000,	-1.79330,	-1.75284,	-1.66766,	-1.72279,	-1.85446,	-1.87797,	-1.87454,	-2.00385,	-2.16965,	-2.35339,	-2.46384,	-2.67004,	-2.84043,	-2.90407,	-2.98127,	-3.00657,	-2.98040,	-2.77566,	-2.65975,	-2.63570,	-2.65620,	-2.65715,	-2.76929,	-2.78172,	-2.78232,	-2.93086,	-3.07623,	-2.96328,	-2.85205,	-2.69297,	-2.56060,	-2.33918,	-2.21409,	-2.07551,	-1.85570,	-1.65789,	-1.51229,	-1.32489,	-1.06926,	-0.92872,	-0.81236,	-0.73479,	-0.61382,	-0.51835,	-0.39897,	-0.15786,	0.02412,	0.04537,	-0.06272,	0.00000,	0.00000,	0.00000,	0.00000,	0.00000,	0.00000,	0.00000,	0.00000,	0.00000,	0.00000,	0.00000,	0.00000,	-0.01971,	-0.07913,	-0.07646,	-0.15995,	-0.15637,	-0.01468,	0.06947,	0.01865,	0.04124,	0.18963,	0.00000,	0.00000,	0.00000,	0.00000,	0.00000,	0.00000,	0.00000,	0.00000,	0.00000,	-0.04883,	-0.10098,	-0.12132,	-0.12653,	-0.23710,	-0.39696,	-0.59078,	-0.62759,	-0.48426,	-0.48424,	-0.64669,	-0.62393,	-0.73417,	-0.98461,	-1.24802,	-1.42968,	-1.64477,	-1.84502,	-1.88148,	-1.93788,	0.00000,	-2.19636,	-2.17901,	-2.15522,	-2.09302,	-2.03736,	-1.90989,	-1.86783,	0.00000,	0.00000,	0.00000,	0.00000,	0.00000,	0.00000,	0.00000,	0.00000,	0.00000,	0.00000,	0.00000,	0.00000,	0.00000,	0.00000,	0.00000,	0.00000,	0.00000,	0.00000,	-3.13168,	-2.96103,	-2.87428,	-2.78316,	-2.53398,	-2.25546,	-2.08476,	0.00000,	0.00000,	0.00000,	0.00000,	0.00000,	0.00000,	0.00000,	0.00000,	0.00000,	0.00000,	0.00000,	0.00000,	0.00000,	0.00000,	0.00000,	0.00000,	0.00000,	0.00000,	0.00000,	0.00000,	0.00000,	0.00000,	0.00000,	0.00000,	0.00000,	0.00000,	0.00000,	0.00000,	0.00000,	0.00000,	0.00000,	0.00000,	0.00000,	0.00000,	-0.00457,	-0.00506,	-0.00993,	0.14628,	0.39118,	0.36081,	0.19266,	0.02567,	-0.05873,	-0.15340,	-0.34927,	-0.47352,	-0.51556,	-0.48911,	-0.40532,	-0.41697,	-0.51585,	-0.50669,	-0.46200,	-0.54694,	-0.57165,	-0.51602,	-0.49434,	-0.36404,	-0.22590,	-0.13406,	-0.21106,	-0.22944,	-0.21839,	-0.25349,	-0.27485,	-0.20546,	-0.20590,	-0.26626,	-0.22574,	-0.13097,	0.05576,	-0.05721,	-0.23828,	-0.23736,	-0.08595,	0.06585,	0.10731,	0.26091
1.35463,	1.24068,	1.10001,	1.01060,	0.93303,	0.90316,	0.91529,	0.99943,	0.97290,	0.95187,	1.05428,	1.05847,	1.07448,	1.07691,	1.08804,	1.07254,	1.00425,	0.86658,	0.58522,	0.21784,	0.01713,	-0.19101,	-0.41843,	-0.60768,	-0.78563,	-1.06214,	-1.31561,	-1.44070,	-1.67621,	-1.94098,	-2.15566,	-2.26106,	-2.28551,	-2.36997,	-2.51442,	-2.58491,	-2.61119,	-2.56895,	-2.47302,	-2.35390,	-2.35127,	-2.35293,	-2.16752,	-2.08129,	-2.09539,	-2.12503,	-2.16688,	-2.16786,	-2.12747,	-2.11727,	-2.26317,	-2.41914,	-2.49503,	-2.51086,	-2.59795,	-2.62866,	-2.66282,	-2.63941,	-2.56061,	-2.40812,	-2.34662,	-2.38803,	-2.39334,	-2.35777,	-2.39291,	-2.56280,	-2.76587,	-2.93165,	-3.14650,	-3.33929,	-3.39505,	-3.27436,	-3.16688,	-3.17267,	-3.01568,	-2.90521,	-2.82228,	-2.62086,	-2.49040,	-2.32966,	-2.13648,	-1.90697,	-1.78819,	-1.77818,	-1.76421,	-1.70116,	-1.63390,	-1.38439,	-1.15961,	-1.10688,	-1.24376,	-1.26230,	-1.30611,	-1.45834,	-1.58807,	-1.55964,	-1.50210,	-1.47272,	-1.49498,	-1.56016,	-1.69350,	-1.79343,	-1.78647,	-1.75557,	-1.88431,	-2.19640,	-2.33510,	-2.42669,	-2.50454,	-2.52277,	-2.64865,	-2.67929,	-2.66601,	-2.51833,	-2.44040,	-2.44717,	-2.57069,	-2.61301,	-2.74341,	-2.76794,	-2.78877,	-2.84458,	-2.94379,	-2.79924,	-2.62607,	-2.53589,	-2.41463,	-2.22847,	-2.10600,	-2.01609,	-1.90370,	-1.69921,	-1.51600,	-1.39405,	-1.17781,	-0.90199,	-0.71603,	-0.73318,	-0.71868,	-0.64536,	-0.55560,	-0.34088,	-0.20280,	-0.11185,	0.00000,	0.00000,	0.00000,	0.00000,	0.00000,	0.00000,	0.00000,	0.00000,	0.00000,	0.00000,	0.00000,	0.00000,	-0.03642,	-0.22679,	-0.31126,	-0.28398,	-0.27231,	-0.22714,	-0.15268,	-0.07072,	-0.10321,	-0.18090,	-0.10194,	0.12244,	0.40566,	0.46360,	0.00000,	0.00000,	0.00000,	0.00000,	0.00000,	0.00000,	0.00000,	-0.08184,	-0.17136,	-0.21489,	-0.37070,	-0.51020,	-0.67212,	-0.66718,	-0.53930,	-0.48688,	-0.61467,	-0.66498,	-0.78331,	-1.08631,	0.00000,	0.00000,	0.00000,	0.00000,	0.00000,	0.00000,	0.00000,	0.00000,	0.00000,	0.00000,	0.00000,	0.00000,	0.00000,	0.00000,	0.00000,	0.00000,	0.00000,	0.00000,	0.00000,	0.00000,	0.00000,	0.00000,	0.00000,	0.00000,	0.00000,	0.00000,	0.00000,	0.00000,	0.00000,	0.00000,	0.00000,	0.00000,	0.00000,	0.00000,	-2.87843,	-2.78541,	-2.65931,	0.00000,	0.00000,	0.00000,	0.00000,	0.00000,	0.00000,	0.00000,	0.00000,	0.00000,	0.00000,	0.00000,	0.00000,	0.00000,	0.00000,	0.00000,	0.00000,	0.00000,	0.00000,	0.00000,	0.00000,	0.00000,	0.00000,	0.00000,	0.00000,	0.00000,	0.00000,	0.00000,	0.00000,	0.00000,	0.00000,	0.00000,	0.00000,	0.00000,	0.00000,	0.00000,	0.00000,	0.00000,	0.00000,	-0.13305,	-0.03017,	0.26272,	0.33457,	0.23238,	0.08815,	0.00276,	-0.05162,	-0.28756,	-0.51373,	-0.57172,	-0.54268,	-0.47024,	-0.48556,	-0.61040,	-0.64811,	-0.61831,	-0.64625,	-0.69633,	-0.67338,	-0.70786,	-0.66954,	-0.49820,	-0.24855,	-0.18266,	-0.28336,	-0.39011,	-0.41709,	-0.42599,	-0.42131,	-0.43024,	-0.40256,	-0.36168,	-0.35375,	-0.14829,	-0.15425,	-0.30019,	-0.31769,	-0.19947,	-0.00085,	0.07835,	0.14771
1.46291,	1.26961,	1.12750,	1.09655,	1.01788,	0.93312,	0.83540,	0.84366,	0.85602,	0.85667,	0.93007,	0.90608,	0.92261,	0.91447,	0.88017,	0.91401,	0.95195,	0.85656,	0.67368,	0.33189,	0.07300,	-0.16039,	-0.42910,	-0.60822,	-0.75231,	-0.97579,	-1.24464,	-1.41512,	-1.60378,	-1.83105,	-2.12985,	-2.26235,	-2.20580,	-2.37600,	-2.59573,	-2.59590,	-2.52094,	-2.43580,	-2.48211,	-2.49488,	-2.46624,	-2.44496,	-2.26360,	-2.15848,	-2.14577,	-2.22909,	-2.34052,	-2.29128,	-2.18031,	-2.20697,	-2.35903,	-2.50468,	-2.65707,	-2.68266,	-2.73512,	-2.73057,	-2.77431,	-2.75525,	-2.67550,	-2.53839,	-2.44093,	-2.35056,	-2.28626,	-2.22724,	-2.18459,	-2.37437,	-2.58292,	-2.71218,	-2.88975,	-3.01418,	-3.09585,	-3.04010,	-2.86648,	-2.80483,	-2.70465,	-2.63071,	-2.49124,	-2.23840,	-2.13701,	-2.02129,	-1.86818,	-1.74164,	-1.71112,	-1.64757,	-1.60022,	-1.47320,	-1.40696,	-1.20795,	-1.04064,	-1.01820,	-1.17762,	-1.20604,	-1.18555,	-1.25495,	-1.38312,	-1.35319,	-1.14058,	-1.07823,	-1.19823,	-1.28368,	-1.41190,	-1.47372,	-1.48183,	-1.51007,	-1.58815,	-1.87764,	-2.06761,	-2.16557,	-2.20205,	-2.21109,	-2.42227,	-2.52216,	-2.54408,	-2.43462,	-2.34900,	-2.26957,	-2.40579,	-2.45040,	-2.58281,	-2.64254,	-2.74399,	-2.78397,	-2.81154,	-2.66594,	-2.50126,	-2.33728,	-2.22558,	-2.20153,	-2.09366,	-2.01227,	-1.97298,	-1.78474,	-1.59390,	-1.43126,	-1.28652,	-1.13312,	-0.87305,	-0.75976,	-0.75245,	-0.76404,	-0.71015,	-0.49514,	-0.42600,	0.00000,	0.00000,	0.00000,	0.00000,	0.00000,	0.00000,	0.00000,	0.00000,	0.00000,	0.00000,	0.00000,	0.00000,	0.00000,	-0.10033,	-0.14557,	-0.23585,	-0.33268,	-0.29527,	-0.20706,	-0.15613,	-0.04635,	-0.06935,	-0.16577,	-0.14335,	-0.02098,	0.31435,	0.48296,	0.49733,	0.00000,	0.00000,	0.00000,	0.00000,	0.00000,	0.00000,	0.00000,	0.00000,	0.00000,	0.00000,	0.00000,	0.00000,	0.00000,	0.00000,	0.00000,	0.00000,	0.00000,	0.00000,	0.00000,	0.00000,	0.00000,	0.00000,	0.00000,	0.00000,	0.00000,	0.00000,	0.00000,	0.00000,	0.00000,	0.00000,	0.00000,	0.00000,	0.00000,	0.00000,	0.00000,	0.00000,	0.00000,	0.00000,	0.00000,	0.00000,	0.00000,	0.00000,	0.00000,	0.00000,	0.00000,	0.00000,	0.00000,	0.00000,	0.00000,	0.00000,	0.00000,	0.00000,	0.00000,	0.00000,	0.00000,	0.00000,	0.00000,	0.00000,	0.00000,	0.00000,	0.00000,	0.00000,	0.00000,	0.00000,	0.00000,	0.00000,	0.00000,	0.00000,	0.00000,	0.00000,	0.00000,	0.00000,	0.00000,	0.00000,	0.00000,	0.00000,	0.00000,	0.00000,	0.00000,	0.00000,	0.00000,	0.00000,	0.00000,	0.00000,	0.00000,	0.00000,	0.00000,	0.00000,	0.00000,	0.00000,	0.00000,	0.00000,	0.00000,	0.00000,	0.00000,	-0.08449,	0.14013,	0.22173,	0.18710,	0.06723,	-0.05922,	-0.10471,	-0.32572,	-0.57443,	-0.57714,	-0.47282,	-0.40467,	-0.45451,	-0.62295,	-0.71811,	-0.71994,	-0.71753,	-0.76695,	-0.78757,	-0.81147,	-0.69913,	-0.55445,	-0.33121,	-0.20648,	-0.38448,	-0.61067,	-0.64782,	-0.59403,	-0.53846,	-0.60061,	-0.62641,	-0.49603,	-0.43922,	-0.34453,	-0.40622,	-0.47177,	-0.42954,	-0.40313,	-0.26187,	-0.13372,	-0.10501
1.30399,	1.15496,	1.09372,	1.11159,	0.93987,	0.75651,	0.68031,	0.72569,	0.79341,	0.87938,	0.90759,	0.77758,	0.77675,	0.78353,	0.77073,	0.77300,	0.79524,	0.79507,	0.76275,	0.56022,	0.27135,	0.02400,	-0.22307,	-0.40896,	-0.58188,	-0.80003,	-1.07799,	-1.39512,	-1.57794,	-1.77986,	-2.09251,	-2.30627,	-2.29851,	-2.35804,	-2.46305,	-2.36605,	-2.28817,	-2.28273,	-2.38595,	-2.45731,	-2.48254,	-2.45871,	-2.31140,	-2.28780,	-2.23449,	-2.27774,	-2.35426,	-2.31180,	-2.31120,	-2.41785,	-2.56489,	-2.65377,	-2.83268,	-2.84825,	-2.80951,	-2.79189,	-2.86979,	-2.89905,	-2.76179,	-2.71918,	-2.64257,	-2.46971,	-2.30105,	-2.24723,	-2.27650,	-2.36664,	-2.45895,	-2.45654,	-2.55565,	-2.69852,	-2.73645,	-2.67465,	-2.51797,	-2.40041,	-2.32911,	-2.40793,	-2.26175,	-1.97014,	-1.80824,	-1.67506,	-1.61224,	-1.52609,	-1.50389,	-1.36937,	-1.28552,	-1.16502,	-1.07851,	-0.95798,	-0.84730,	-0.92429,	-1.05371,	-1.16940,	-1.13599,	-1.10323,	-1.12865,	-1.07240,	-0.89052,	-0.75150,	-0.85302,	-0.90751,	-1.05481,	-1.22566,	-1.22053,	-1.21002,	-1.26009,	-1.47954,	-1.63703,	-1.85214,	-1.96129,	-2.06152,	-2.32219,	-2.45183,	-2.54620,	-2.42023,	-2.26719,	-2.09644,	-2.20099,	-2.28988,	-2.34970,	-2.44052,	-2.62091,	-2.75205,	-2.67333,	-2.60228,	-2.52120,	-2.34606,	-2.22913,	-2.23209,	-2.19631,	-2.06148,	-1.96168,	-1.74592,	-1.56875,	-1.49708,	-1.39688,	-1.26864,	-1.00502,	-0.82041,	-0.71170,	-0.79822,	-0.76302,	-0.54060,	0.00000,	0.00000,	0.00000,	0.00000,	0.00000,	0.00000,	0.00000,	0.00000,	0.00000,	0.00000,	0.00000,	0.00000,	0.00000,	-0.02641,	-0.08065,	-0.05983,	-0.15927,	-0.29169,	-0.37433,	-0.29030,	-0.15766,	0.03688,	0.06450,	-0.09754,	-0.09221,	0.03688,	0.29805,	0.40372,	0.43587,	0.30387,	0.00000,	0.00000,	0.00000,	0.00000,	0.00000,	0.00000,	0.00000,	0.00000,	0.00000,	0.00000,	0.00000,	0.00000,	0.00000,	0.00000,	0.00000,	0.00000,	0.00000,	0.00000,	0.00000,	0.00000,	0.00000,	0.00000,	0.00000,	0.00000,	0.00000,	0.00000,	0.00000,	0.00000,	0.00000,	0.00000,	0.00000,	0.00000,	0.00000,	0.00000,	0.00000,	0.00000,	0.00000,	0.00000,	0.00000,	0.00000,	0.00000,	0.00000,	0.00000,	0.00000,	0.00000,	0.00000,	0.00000,	0.00000,	0.00000,	0.00000,	0.00000,	0.00000,	0.00000,	0.00000,	0.00000,	0.00000,	0.00000,	0.00000,	0.00000,	0.00000,	0.00000,	0.00000,	0.00000,	0.00000,	0.00000,	0.00000,	0.00000,	0.00000,	0.00000,	0.00000,	0.00000,	0.00000,	0.00000,	0.00000,	0.00000,	0.00000,	-0.75994,	-0.85924,	-0.93777,	-0.96256,	-1.01746,	-1.05540,	0.00000,	0.00000,	0.00000,	0.00000,	0.00000,	0.00000,	0.00000,	0.00000,	0.00000,	0.00000,	0.00000,	0.00000,	0.00000,	0.07240,	0.08358,	0.07846,	-0.02198,	-0.12216,	-0.17202,	-0.38622,	-0.52992,	-0.44237,	-0.25902,	-0.24547,	-0.34609,	-0.49704,	-0.67102,	-0.77414,	-0.80154,	-0.78680,	-0.85650,	-0.83612,	-0.65873,	-0.51750,	-0.46063,	-0.49938,	-0.63159,	-0.83234,	-0.82538,	-0.76620,	-0.76975,	-0.79897,	-0.80010,	-0.66197,	-0.56395,	-0.55785,	-0.78114,	-0.81283,	-0.72159,	-0.72001,	-0.64532,	-0.55974,	-0.47224
1.26353,	1.11839,	0.96741,	0.92342,	0.80394,	0.63368,	0.55034,	0.62626,	0.68723,	0.77761,	0.90717,	0.82933,	0.80150,	0.79399,	0.80272,	0.77508,	0.76990,	0.83218,	0.76770,	0.55978,	0.29556,	0.09382,	-0.12675,	-0.36433,	-0.51170,	-0.63631,	-0.88110,	-1.24134,	-1.46218,	-1.70491,	-1.94723,	-2.13649,	-2.19432,	-2.19891,	-2.32056,	-2.29599,	-2.17720,	-2.18309,	-2.34479,	-2.45996,	-2.56890,	-2.62204,	-2.41509,	-2.32147,	-2.25960,	-2.27664,	-2.31505,	-2.30235,	-2.39622,	-2.54126,	-2.76016,	-2.91569,	-3.05872,	-3.01187,	-2.92445,	-2.96934,	-3.05650,	-3.00741,	-2.79968,	-2.76148,	-2.70508,	-2.56079,	-2.30098,	-2.15924,	-2.22156,	-2.25113,	-2.32474,	-2.34657,	-2.31148,	-2.37057,	-2.38883,	-2.31992,	-2.18983,	-2.10932,	-1.97098,	-1.98600,	-1.87481,	-1.63076,	-1.46449,	-1.34146,	-1.34136,	-1.25565,	-1.27393,	-1.24453,	-1.15059,	-1.01564,	-0.90641,	-0.86209,	-0.74633,	-0.73459,	-0.79408,	-0.91578,	-0.89781,	-0.88933,	-0.83394,	-0.68537,	-0.56784,	-0.44187,	-0.56706,	-0.73893,	-0.85666,	-1.00575,	-1.01961,	-1.01760,	-1.06050,	-1.28297,	-1.35301,	-1.46897,	-1.64176,	-1.85473,	-2.14887,	-2.29275,	-2.42112,	-2.26748,	-2.11886,	-2.07513,	-2.18914,	-2.27488,	-2.26589,	-2.39484,	-2.57959,	-2.63136,	-2.47077,	-2.39931,	-2.36307,	-2.28726,	-2.18952,	-2.10381,	-2.11076,	-1.99344,	-1.88139,	-1.79318,	-1.60005,	-1.47783,	-1.39893,	-1.31739,	-1.09093,	-0.97621,	-0.80139,	0.00000,	0.00000,	0.00000,	0.00000,	0.00000,	0.00000,	0.00000,	0.00000,	0.00000,	0.00000,	0.00000,	0.00000,	0.00000,	0.00000,	0.00000,	0.19292,	0.09893,	0.04119,	-0.00260,	-0.11119,	-0.14775,	-0.29499,	-0.27810,	-0.13569,	-0.06259,	-0.00467,	-0.06489,	-0.04693,	0.05020,	0.23864,	0.20816,	0.25222,	0.24348,	0.13894,	0.00000,	0.00000,	0.00000,	0.00000,	0.00000,	0.00000,	0.00000,	0.00000,	0.00000,	0.00000,	0.00000,	0.00000,	0.00000,	0.00000,	0.00000,	0.00000,	0.00000,	0.00000,	0.00000,	0.00000,	0.00000,	0.00000,	0.00000,	0.00000,	0.00000,	0.00000,	0.00000,	0.00000,	0.00000,	0.00000,	0.00000,	0.00000,	0.00000,	0.00000,	0.00000,	0.00000,	0.00000,	0.00000,	0.00000,	0.00000,	0.00000,	0.00000,	0.00000,	0.00000,	0.00000,	0.00000,	0.00000,	0.00000,	0.00000,	0.00000,	0.00000,	0.00000,	0.00000,	0.00000,	0.00000,	0.00000,	0.00000,	0.00000,	0.00000,	0.00000,	0.00000,	0.00000,	0.00000,	0.00000,	0.00000,	0.00000,	0.00000,	0.00000,	0.00000,	0.00000,	0.00000,	0.00000,	0.00000,	0.00000,	-0.70527,	-0.76973,	-0.83967,	-0.83891,	-0.83998,	-0.95263,	-1.06967,	-1.26045,	-1.32296,	0.00000,	0.00000,	0.00000,	0.00000,	0.00000,	0.00000,	0.00000,	0.00000,	0.00000,	0.00000,	0.00000,	0.00000,	0.09004,	0.08793,	-0.01673,	-0.08732,	-0.13878,	-0.34929,	-0.42162,	-0.38732,	-0.28353,	-0.30295,	-0.39591,	-0.53324,	-0.79937,	-0.92871,	-0.87729,	-0.78801,	-0.81897,	-0.77369,	-0.63369,	-0.46524,	-0.45783,	-0.63968,	-0.77169,	-1.01518,	-1.09144,	-0.97959,	-0.95966,	-1.01371,	-1.04674,	-0.96113,	-0.91060,	-0.84125,	-1.00233,	-1.06314,	-1.00807,	-1.00006,	-0.94092,	-0.89239,	-0.74733
1.22529,	1.04957,	0.87830,	0.81952,	0.73879,	0.64733,	0.54969,	0.53151,	0.60332,	0.75617,	0.91189,	0.87637,	0.79386,	0.82114,	0.83998,	0.76462,	0.75968,	0.84678,	0.72523,	0.52414,	0.39900,	0.18049,	-0.09424,	-0.32878,	-0.46056,	-0.59835,	-0.88434,	-1.22355,	-1.44267,	-1.61623,	-1.83150,	-2.04610,	-2.05859,	-2.07368,	-2.17523,	-2.14802,	-2.05195,	-2.05609,	-2.30471,	-2.56343,	-2.69184,	-2.64356,	-2.41239,	-2.30161,	-2.31037,	-2.31016,	-2.32489,	-2.39335,	-2.51855,	-2.67813,	-2.91715,	-3.09788,	-3.14747,	-3.14218,	-3.10720,	-3.11765,	-3.18250,	-3.14052,	-2.97051,	-2.89188,	-2.81550,	-2.60317,	-2.31272,	-2.17615,	-2.12206,	-2.09011,	-2.13695,	-2.11549,	-2.05595,	-2.02090,	-2.02705,	-2.03431,	-1.90341,	-1.70257,	-1.53278,	-1.53930,	-1.54921,	-1.40141,	-1.24312,	-1.17839,	-1.13144,	-1.01446,	-1.05588,	-1.13328,	-0.97343,	-0.84683,	-0.81936,	-0.76719,	-0.61025,	-0.53695,	-0.60588,	-0.70354,	-0.71430,	-0.66749,	-0.54198,	-0.41816,	-0.25780,	-0.16062,	-0.35859,	-0.53754,	-0.66533,	-0.72868,	-0.75198,	-0.88049,	-0.98009,	-1.06229,	-1.08314,	-1.15719,	-1.42055,	-1.74006,	-1.97926,	-2.18452,	-2.31106,	-2.17482,	-2.04687,	-2.12140,	-2.19114,	-2.26142,	-2.30120,	-2.39923,	-2.51202,	-2.49413,	-2.36756,	-2.26966,	-2.24764,	-2.18360,	-2.09327,	-2.08922,	-2.07674,	-1.93756,	-1.85274,	-1.72895,	-1.51925,	-1.30614,	-1.21527,	-1.28045,	-1.20502,	0.00000,	0.00000,	0.00000,	0.00000,	0.00000,	0.00000,	0.00000,	0.00000,	0.00000,	0.00000,	0.00000,	0.00000,	0.00000,	0.00000,	0.00000,	0.00000,	0.18260,	0.11600,	0.09471,	0.06748,	0.02330,	-0.05966,	-0.13990,	-0.24603,	-0.17728,	-0.09136,	-0.04741,	-0.01265,	0.02175,	0.07672,	0.07463,	0.10556,	0.10666,	0.20281,	0.25472,	0.11114,	0.03067,	0.00000,	0.00000,	0.00000,	0.00000,	0.00000,	0.00000,	0.00000,	0.00000,	0.00000,	0.00000,	0.00000,	0.00000,	0.00000,	0.00000,	0.00000,	0.00000,	0.00000,	0.00000,	0.00000,	0.00000,	0.00000,	0.00000,	0.00000,	0.00000,	0.00000,	0.00000,	0.00000,	0.00000,	0.00000,	0.00000,	0.00000,	0.00000,	0.00000,	0.00000,	0.00000,	0.00000,	0.00000,	0.00000,	0.00000,	0.00000,	0.00000,	0.00000,	0.00000,	0.00000,	0.00000,	0.00000,	0.00000,	0.00000,	0.00000,	0.00000,	0.00000,	0.00000,	0.00000,	0.00000,	0.00000,	0.00000,	0.00000,	0.00000,	0.00000,	0.00000,	0.00000,	0.00000,	0.00000,	0.00000,	0.00000,	0.00000,	0.00000,	0.00000,	0.00000,	0.00000,	0.00000,	0.00000,	-0.69805,	-0.73062,	-0.76519,	-0.80213,	-0.81896,	-0.83718,	-0.93205,	-1.07932,	-1.26445,	-1.40815,	-1.47926,	0.00000,	0.00000,	0.00000,	0.00000,	0.00000,	0.00000,	0.00000,	0.00000,	0.00000,	0.00000,	0.00000,	0.00000,	0.04799,	-0.02358,	-0.09798,	-0.20382,	-0.33988,	-0.32615,	-0.34426,	-0.33888,	-0.34595,	-0.52556,	-0.73423,	-0.96679,	-1.05344,	-0.99628,	-0.92515,	-0.87646,	-0.78584,	-0.60403,	-0.48052,	-0.58783,	-0.74445,	-0.86983,	-1.12879,	-1.24409,	-1.16923,	-1.09036,	-1.17392,	-1.35030,	-1.32351,	-1.20525,	-1.12726,	-1.24253,	-1.37228,	-1.35398,	-1.31497,	-1.29306,	-1.18168,	-0.96891
1.17537,	0.96769,	0.83041,	0.79029,	0.67895,	0.62976,	0.71364,	0.71075,	0.61440,	0.69899,	0.78278,	0.69755,	0.64325,	0.77691,	0.88770,	0.85592,	0.75725,	0.75496,	0.64185,	0.52529,	0.50735,	0.26752,	-0.01639,	-0.23170,	-0.40306,	-0.59319,	-0.91307,	-1.23556,	-1.46890,	-1.58915,	-1.70814,	-1.91525,	-1.96910,	-2.09104,	-2.17121,	-2.10876,	-2.09136,	-2.14479,	-2.30676,	-2.49940,	-2.67286,	-2.56100,	-2.33988,	-2.31712,	-2.38734,	-2.36701,	-2.36775,	-2.46980,	-2.66501,	-2.84867,	-2.93730,	-2.96672,	-2.98325,	-3.11133,	-3.09942,	-2.99038,	-3.00114,	-2.99944,	-2.90875,	-2.86743,	-2.80471,	-2.58836,	-2.26879,	-2.11521,	-1.99993,	-1.95202,	-1.94078,	-1.89039,	-1.93001,	-1.92770,	-1.83935,	-1.72854,	-1.63831,	-1.42554,	-1.22128,	-1.26661,	-1.36394,	-1.25216,	-1.13429,	-1.07176,	-0.98728,	-0.90857,	-0.89716,	-0.93655,	-0.74850,	-0.67203,	-0.66470,	-0.51617,	-0.32311,	-0.21169,	-0.27787,	-0.43094,	-0.53445,	-0.56646,	-0.38867,	-0.23725,	-0.06464,	-0.03480,	-0.26418,	-0.40414,	-0.54330,	-0.58700,	-0.55692,	-0.61003,	-0.84060,	-0.98642,	-1.02154,	-1.15822,	-1.44305,	-1.66126,	-1.75289,	-1.90998,	-2.09823,	-2.16312,	-2.04369,	-2.04082,	-2.03136,	-2.12675,	-2.19970,	-2.20429,	-2.23010,	-2.18390,	-2.10572,	-2.06213,	-2.08503,	-2.08720,	-1.99874,	-2.06076,	-2.10710,	-2.01889,	-1.95344,	-1.74971,	-1.50637,	-1.28261,	0.00000,	0.00000,	0.00000,	0.00000,	0.00000,	0.00000,	0.00000,	0.00000,	0.00000,	0.00000,	0.00000,	0.00000,	0.00000,	0.00000,	0.00000,	0.00000,	0.00000,	0.00000,	0.15447,	0.05336,	0.01520,	0.02902,	0.03932,	-0.01956,	-0.05643,	-0.11108,	-0.14907,	-0.05405,	-0.02789,	-0.00036,	-0.04225,	-0.07868,	-0.00282,	0.14414,	0.11320,	0.08528,	0.24051,	0.25542,	0.00193,	-0.17561,	0.00000,	0.00000,	0.00000,	0.00000,	0.00000,	0.00000,	0.00000,	0.00000,	0.00000,	0.00000,	0.00000,	0.00000,	0.00000,	0.00000,	0.00000,	0.00000,	0.00000,	0.00000,	0.00000,	0.00000,	0.00000,	0.00000,	0.00000,	-1.96971,	-2.03854,	-1.98192,	-2.02544,	-2.13212,	-2.17466,	0.00000,	0.00000,	0.00000,	0.00000,	0.00000,	0.00000,	0.00000,	0.00000,	0.00000,	0.00000,	0.00000,	0.00000,	0.00000,	0.00000,	0.00000,	0.00000,	0.00000,	0.00000,	0.00000,	0.00000,	0.00000,	0.00000,	0.00000,	0.00000,	0.00000,	0.00000,	0.00000,	0.00000,	0.00000,	0.00000,	0.00000,	0.00000,	0.00000,	0.00000,	0.00000,	0.00000,	0.00000,	0.00000,	0.00000,	-0.68090,	-0.65779,	-0.63025,	-0.50945,	-0.54444,	-0.62392,	-0.66807,	-0.72455,	-0.81275,	-0.89617,	-0.99990,	-1.17791,	-1.32142,	-1.45872,	-1.57787,	-1.54558,	0.00000,	0.00000,	0.00000,	0.00000,	0.00000,	0.00000,	0.00000,	0.00000,	0.00000,	0.00000,	0.00000,	0.00000,	-0.00511,	-0.07589,	-0.23314,	-0.40025,	-0.38149,	-0.34847,	-0.32074,	-0.33901,	-0.62337,	-0.86033,	-0.96549,	-0.98337,	-0.95449,	-0.94909,	-0.93860,	-0.89407,	-0.74590,	-0.64194,	-0.76942,	-0.86538,	-0.97703,	-1.20431,	-1.35943,	-1.40026,	-1.34230,	-1.30280,	-1.38325,	-1.47484,	-1.42481,	-1.40584,	-1.55494,	-1.68122,	-1.60388,	-1.51806,	-1.46628,	-1.32070,	-1.13907
1.19689,	0.93133,	0.80805,	0.76659,	0.72550,	0.72739,	0.86150,	0.90500,	0.75333,	0.69067,	0.66282,	0.55531,	0.49881,	0.63393,	0.75482,	0.80434,	0.79265,	0.71326,	0.56761,	0.48956,	0.45948,	0.24728,	0.00489,	-0.23958,	-0.48639,	-0.68817,	-0.98729,	-1.23197,	-1.38757,	-1.48551,	-1.57461,	-1.72513,	-1.84507,	-2.10919,	-2.22888,	-2.19992,	-2.14946,	-2.15071,	-2.28139,	-2.40935,	-2.56616,	-2.53430,	-2.40516,	-2.36429,	-2.42977,	-2.43767,	-2.48963,	-2.59953,	-2.72319,	-2.89238,	-2.91634,	-2.81604,	-2.83481,	-2.96471,	-2.89614,	-2.72265,	-2.72859,	-2.73582,	-2.68784,	-2.65351,	-2.58269,	-2.42130,	-2.16888,	-2.00575,	-1.91808,	-1.94420,	-1.89713,	-1.84211,	-1.83421,	-1.76108,	-1.68719,	-1.57998,	-1.52328,	-1.39204,	-1.21564,	-1.15561,	-1.22043,	-1.13903,	-1.09881,	-1.03322,	-0.82827,	-0.71818,	-0.73490,	-0.73152,	-0.60728,	-0.55610,	-0.50504,	-0.30046,	-0.13186,	0.01282,	-0.02231,	-0.16938,	-0.27037,	-0.36185,	-0.24421,	-0.06805,	0.09999,	0.04355,	-0.16908,	-0.33119,	-0.44660,	-0.44038,	-0.47394,	-0.52780,	-0.79778,	-1.04630,	-1.17202,	-1.27457,	-1.49660,	-1.62475,	-1.65527,	-1.76620,	-1.88598,	-1.97931,	-1.95386,	-1.88558,	-1.88277,	-1.98612,	-2.01836,	-1.96057,	-2.00138,	-1.96072,	-1.89722,	-1.88876,	-1.93118,	-1.96767,	-1.93822,	-1.98499,	-2.01134,	-2.01232,	-1.96765,	-1.81779,	0.00000,	0.00000,	0.00000,	0.00000,	0.00000,	0.00000,	0.00000,	0.00000,	0.00000,	0.00000,	0.00000,	0.00000,	0.00000,	0.00000,	0.00000,	0.00000,	0.00000,	0.00000,	0.00000,	0.12421,	-0.01128,	-0.15188,	-0.14364,	-0.06178,	0.05744,	0.10123,	0.07775,	0.04382,	0.04043,	0.01054,	-0.04962,	-0.09988,	-0.17930,	-0.14449,	-0.07234,	0.10821,	0.08364,	0.02008,	0.10532,	0.12531,	-0.09545,	-0.27402,	-0.30341,	0.00000,	0.00000,	0.00000,	0.00000,	0.00000,	0.00000,	0.00000,	0.00000,	0.00000,	0.00000,	0.00000,	0.00000,	0.00000,	0.00000,	0.00000,	0.00000,	0.00000,	-1.24416,	-1.36572,	-1.54320,	-1.74148,	-1.92647,	-2.02780,	-2.19198,	-2.14944,	-2.17646,	-2.32651,	-2.49848,	-2.59912,	0.00000,	0.00000,	0.00000,	0.00000,	0.00000,	0.00000,	0.00000,	0.00000,	-3.85504,	-3.86226,	-3.79701,	0.00000,	0.00000,	0.00000,	0.00000,	0.00000,	0.00000,	0.00000,	0.00000,	0.00000,	0.00000,	0.00000,	0.00000,	0.00000,	0.00000,	0.00000,	0.00000,	0.00000,	0.00000,	0.00000,	0.00000,	0.00000,	0.00000,	0.00000,	-1.12700,	-1.10159,	-1.04692,	-0.88134,	-0.77939,	-0.74759,	-0.66487,	-0.52522,	-0.50321,	-0.52887,	-0.59648,	-0.70752,	-0.85849,	-1.03392,	-1.13729,	-1.25025,	-1.34567,	-1.44867,	-1.52078,	-1.55350,	0.00000,	0.00000,	0.00000,	0.00000,	0.00000,	0.00000,	0.00000,	0.00000,	0.00000,	0.00000,	0.00000,	0.00000,	0.00000,	0.00000,	-0.31285,	-0.39567,	-0.39414,	-0.38056,	-0.32538,	-0.39008,	-0.68504,	-0.89322,	-0.97156,	-1.02892,	-1.01142,	-1.02401,	-1.00821,	-0.94437,	-0.85754,	-0.83477,	-0.94330,	-1.03525,	-1.19584,	-1.38270,	-1.53959,	-1.53266,	-1.41762,	-1.35856,	-1.37520,	-1.49279,	-1.57499,	-1.67964,	-1.79312,	-1.86142,	-1.76207,	-1.71974,	-1.66395,	-1.40255,	-1.19661
1.17120,	0.95556,	0.90002,	0.90481,	0.84333,	0.80782,	0.94280,	1.04323,	1.03993,	0.97272,	0.83654,	0.67959,	0.49487,	0.52728,	0.60927,	0.68819,	0.71424,	0.56161,	0.39727,	0.33228,	0.34348,	0.20672,	-0.02089,	-0.29820,	-0.55471,	-0.71510,	-1.03698,	-1.26531,	-1.35385,	-1.45420,	-1.56813,	-1.69373,	-1.74559,	-1.97788,	-2.10890,	-2.08794,	-2.07986,	-2.12477,	-2.24592,	-2.34420,	-2.41588,	-2.39555,	-2.38444,	-2.31883,	-2.40220,	-2.45930,	-2.51398,	-2.60131,	-2.68882,	-2.92520,	-2.96186,	-2.80923,	-2.71868,	-2.68637,	-2.57672,	-2.42401,	-2.45018,	-2.43329,	-2.44436,	-2.46590,	-2.42959,	-2.37345,	-2.22988,	-2.12885,	-2.02765,	-2.00010,	-1.91708,	-1.75868,	-1.66623,	-1.60043,	-1.55122,	-1.50239,	-1.44486,	-1.26212,	-1.14491,	-1.01335,	-1.05571,	-1.03836,	-0.99037,	-0.88359,	-0.60463,	-0.52968,	-0.58447,	-0.57240,	-0.46188,	-0.35864,	-0.32525,	-0.16129,	-0.02255,	0.17526,	0.13478,	-0.03979,	-0.10235,	-0.22152,	-0.17789,	-0.05251,	0.14162,	0.17311,	-0.00397,	-0.13733,	-0.29238,	-0.42722,	-0.56210,	-0.63871,	-0.85331,	-0.97634,	-1.15119,	-1.22238,	-1.42975,	-1.63219,	-1.65352,	-1.72666,	-1.74251,	-1.84901,	-1.91031,	-1.86087,	-1.87551,	-1.88933,	-1.88838,	-1.83873,	-1.92892,	-1.86580,	-1.82214,	-1.90227,	-1.96859,	-2.04191,	-2.04857,	-2.04138,	-1.92230,	-1.78941,	-1.73392,	-1.60425,	0.00000,	0.00000,	0.00000,	0.00000,	0.00000,	0.00000,	0.00000,	0.00000,	0.00000,	0.00000,	0.00000,	0.00000,	0.00000,	0.00000,	0.00000,	0.00000,	0.00000,	0.00000,	0.02916,	-0.03334,	-0.19518,	-0.26684,	-0.20561,	-0.12776,	0.07289,	0.19583,	0.17420,	0.09589,	0.07679,	0.03754,	-0.08321,	-0.13366,	-0.19504,	-0.16854,	-0.11320,	0.05389,	0.01302,	0.01858,	0.02427,	0.03260,	-0.09625,	-0.29792,	-0.33510,	-0.45325,	-0.49586,	-0.53041,	-0.60852,	-0.64047,	-0.65225,	-0.56225,	-0.55628,	-0.58251,	-0.72151,	-0.73654,	-0.68555,	-0.75282,	-0.78380,	-0.87748,	-1.07827,	-1.34962,	-1.43472,	-1.47426,	-1.61248,	-1.75098,	-1.91592,	-2.07412,	-2.32071,	-2.34158,	-2.39809,	-2.45825,	-2.67934,	-2.82066,	-2.84577,	-3.01362,	-3.18179,	-3.37378,	-3.43781,	-3.50128,	-3.79050,	-3.97046,	-4.01819,	-3.95987,	-3.84000,	-3.64071,	0.00000,	0.00000,	0.00000,	0.00000,	0.00000,	0.00000,	0.00000,	0.00000,	0.00000,	0.00000,	0.00000,	0.00000,	0.00000,	0.00000,	0.00000,	0.00000,	0.00000,	0.00000,	0.00000,	0.00000,	-1.28270,	-1.26553,	-1.14546,	-1.17121,	-1.15046,	-1.00185,	-0.99688,	-1.00936,	-0.93278,	-0.72340,	-0.59666,	-0.53365,	-0.57801,	-0.68110,	-0.84191,	-1.14491,	-1.29251,	-1.34659,	-1.41871,	-1.50705,	-1.52473,	-1.45415,	-1.48564,	0.00000,	0.00000,	0.00000,	0.00000,	0.00000,	0.00000,	0.00000,	0.00000,	0.00000,	0.00000,	0.00000,	0.00000,	0.00000,	0.00000,	-0.40344,	-0.46655,	-0.49984,	-0.44623,	-0.46765,	-0.68378,	-0.88833,	-1.03021,	-1.15315,	-1.10864,	-1.14765,	-1.13716,	-1.03608,	-1.01628,	-1.10036,	-1.27186,	-1.34372,	-1.45150,	-1.57169,	-1.60618,	-1.55101,	-1.48354,	-1.45493,	-1.47253,	-1.52301,	-1.56161,	-1.76248,	-1.85969,	-1.92788,	-1.88751,	-1.87453,	-1.82341,	-1.51769,	-1.34009
1.18248,	1.03697,	1.00917,	0.98279,	0.93075,	0.94663,	1.14334,	1.32536,	1.34355,	1.24481,	1.05878,	0.81941,	0.57816,	0.49687,	0.55066,	0.59652,	0.45168,	0.33561,	0.29965,	0.18979,	0.16822,	0.11355,	-0.07709,	-0.33968,	-0.52405,	-0.70768,	-1.03360,	-1.21065,	-1.35793,	-1.47154,	-1.50212,	-1.60465,	-1.65785,	-1.77636,	-1.87984,	-1.98105,	-2.10857,	-2.20125,	-2.24044,	-2.22699,	-2.25873,	-2.25539,	-2.28507,	-2.28185,	-2.36348,	-2.44779,	-2.44691,	-2.40536,	-2.56761,	-2.79892,	-2.73124,	-2.59451,	-2.44514,	-2.26534,	-2.17411,	-2.12538,	-2.10977,	-2.09276,	-2.15161,	-2.17152,	-2.28962,	-2.40144,	-2.29305,	-2.22640,	-2.12981,	-1.99715,	-1.87212,	-1.74169,	-1.65399,	-1.57342,	-1.45841,	-1.33697,	-1.28589,	-1.13740,	-1.07555,	-1.02895,	-1.03852,	-0.98592,	-0.86992,	-0.61774,	-0.43744,	-0.40480,	-0.30369,	-0.27643,	-0.23725,	-0.13647,	-0.15930,	-0.10145,	0.06902,	0.27984,	0.20658,	0.07820,	-0.01947,	-0.15409,	-0.05086,	0.04835,	0.13775,	0.22640,	0.13203,	-0.04210,	-0.26067,	-0.46331,	-0.61088,	-0.62785,	-0.80486,	-0.91878,	-1.08119,	-1.17598,	-1.34816,	-1.55753,	-1.61458,	-1.54715,	-1.58589,	-1.76243,	-1.77202,	-1.76573,	-1.82533,	-1.75867,	-1.73278,	-1.77194,	-1.86624,	-1.82051,	-1.86290,	-1.92607,	-1.98983,	-2.10526,	-2.03184,	-1.90283,	-1.73637,	-1.48626,	-1.35421,	0.00000,	0.00000,	0.00000,	0.00000,	0.00000,	0.00000,	0.00000,	0.00000,	0.00000,	0.00000,	0.00000,	0.00000,	0.00000,	0.00000,	0.00000,	0.00000,	0.00000,	-0.30821,	-0.11134,	-0.13433,	-0.24373,	-0.32318,	-0.22788,	-0.14763,	-0.04512,	0.11988,	0.18590,	0.25435,	0.24697,	0.17822,	0.15157,	0.04260,	-0.07319,	-0.20432,	-0.22360,	-0.14984,	0.09187,	0.09912,	0.05208,	-0.01013,	-0.05346,	-0.13508,	-0.27826,	-0.36868,	-0.34040,	-0.33400,	-0.45517,	-0.42949,	-0.39312,	-0.47868,	-0.40289,	-0.39846,	-0.51387,	-0.61274,	-0.53652,	-0.52659,	-0.58307,	-0.63862,	-0.85495,	-1.07344,	-1.33722,	-1.50854,	-1.54716,	-1.68215,	-1.87190,	-2.07526,	-2.26713,	-2.51382,	-2.53296,	-2.59277,	-2.67687,	-2.88063,	-3.03467,	-3.09430,	-3.25345,	-3.45484,	-3.49139,	-3.49889,	-3.70558,	-3.93811,	-4.03435,	-4.09921,	-3.96331,	-3.78264,	-3.67699,	-3.58625,	-3.40053,	0.00000,	0.00000,	0.00000,	0.00000,	0.00000,	0.00000,	0.00000,	0.00000,	0.00000,	0.00000,	0.00000,	0.00000,	0.00000,	0.00000,	0.00000,	0.00000,	-1.64279,	-1.50121,	-1.34916,	-1.26552,	-1.19732,	-1.17164,	-1.16429,	-1.24079,	-1.27269,	-1.20002,	-1.10752,	-0.85786,	-0.64531,	-0.58375,	-0.62003,	-0.60731,	-0.76356,	-1.09212,	-1.23495,	-1.34518,	-1.44008,	-1.44726,	-1.41329,	-1.28327,	-1.20341,	-1.05993,	0.00000,	0.00000,	0.00000,	0.00000,	0.00000,	0.00000,	0.00000,	0.00000,	0.00000,	0.00000,	0.00000,	0.00000,	0.00000,	0.00000,	-0.56700,	-0.55387,	-0.56316,	-0.55171,	-0.63419,	-0.84505,	-1.02750,	-1.07523,	-1.03791,	-1.11650,	-1.10704,	-1.09885,	-1.15109,	-1.19670,	-1.38546,	-1.52546,	-1.59040,	-1.65498,	-1.67364,	-1.64878,	-1.63884,	-1.59278,	-1.51235,	-1.52133,	-1.57568,	-1.78707,	-1.94105,	-2.01548,	-2.02885,	-1.97856,	-1.75770,	-1.55286,	-1.42777
1.10965,	1.01276,	1.02797,	0.99071,	1.08457,	1.26163,	1.37447,	1.45367,	1.41569,	1.28301,	1.13096,	0.92821,	0.73317,	0.59649,	0.48447,	0.36272,	0.22387,	0.29286,	0.34807,	0.15083,	-0.00925,	-0.06895,	-0.13701,	-0.27163,	-0.45409,	-0.74426,	-1.05397,	-1.15365,	-1.24845,	-1.25802,	-1.29764,	-1.46550,	-1.55980,	-1.62959,	-1.68110,	-1.87543,	-2.06213,	-2.11374,	-2.19575,	-2.22518,	-2.20888,	-2.15453,	-2.14817,	-2.16307,	-2.23982,	-2.32956,	-2.36809,	-2.32092,	-2.37364,	-2.38694,	-2.26207,	-2.21410,	-2.13932,	-1.98835,	-1.91358,	-1.88650,	-1.89398,	-1.97422,	-2.08017,	-2.06380,	-2.16340,	-2.23773,	-2.23093,	-2.31250,	-2.23729,	-2.08783,	-1.92338,	-1.84326,	-1.77210,	-1.54349,	-1.39983,	-1.28777,	-1.17962,	-1.03370,	-1.00989,	-1.00736,	-0.94959,	-0.77838,	-0.63445,	-0.41789,	-0.26554,	-0.08276,	0.14358,	0.12922,	0.03041,	-0.00354,	-0.04344,	0.05730,	0.22099,	0.31005,	0.18441,	0.09182,	0.02467,	0.07032,	0.19309,	0.12163,	0.05652,	0.05900,	0.03511,	-0.11707,	-0.31370,	-0.33943,	-0.49117,	-0.63138,	-0.80933,	-0.93362,	-1.07699,	-1.12794,	-1.21698,	-1.35344,	-1.49390,	-1.50435,	-1.56960,	-1.63251,	-1.61300,	-1.70724,	-1.83331,	-1.80738,	-1.76480,	-1.72984,	-1.76501,	-1.83407,	-1.99159,	-2.04616,	-2.03348,	-1.96696,	-1.82008,	-1.77557,	-1.66492,	-1.42665,	0.00000,	0.00000,	0.00000,	0.00000,	0.00000,	0.00000,	0.00000,	0.00000,	0.00000,	0.00000,	0.00000,	0.00000,	0.00000,	0.00000,	0.00000,	0.00000,	0.00000,	-0.58918,	-0.51863,	-0.37797,	-0.34733,	-0.34075,	-0.29328,	-0.14014,	-0.09033,	-0.01597,	0.08469,	0.23541,	0.40567,	0.34560,	0.24529,	0.20631,	0.12307,	-0.00499,	-0.21185,	-0.15036,	-0.05960,	0.07055,	0.11641,	0.06316,	-0.05762,	-0.11164,	-0.18333,	-0.26033,	-0.40584,	-0.42726,	-0.39575,	-0.36277,	-0.20248,	-0.12254,	-0.23521,	-0.29500,	-0.36262,	-0.45607,	-0.44782,	-0.37479,	-0.45653,	-0.58413,	-0.70984,	-0.86285,	-0.99323,	-1.29363,	-1.55423,	-1.69428,	-1.90033,	-2.10745,	-2.29917,	-2.32886,	-2.49032,	-2.67677,	-2.81944,	-2.91794,	-3.08676,	-3.20040,	-3.29388,	-3.41222,	-3.59998,	-3.62728,	-3.63864,	-3.77199,	-3.87580,	-3.94106,	-4.02733,	-3.92012,	-3.76466,	-3.69334,	-3.61431,	-3.43283,	-3.36187,	-3.29467,	0.00000,	0.00000,	0.00000,	0.00000,	0.00000,	0.00000,	0.00000,	0.00000,	0.00000,	0.00000,	0.00000,	-2.34002,	-2.18293,	-2.00929,	-1.90063,	-1.73973,	-1.52990,	-1.34255,	-1.28396,	-1.27521,	-1.28390,	-1.36910,	-1.34644,	-1.25223,	-1.15896,	-0.96866,	-0.78399,	-0.73372,	-0.72671,	-0.66014,	-0.81529,	-1.07567,	-1.16401,	-1.20162,	-1.22963,	-1.26423,	-1.25028,	-1.10942,	-1.00208,	-0.87905,	-0.84703,	0.00000,	0.00000,	0.00000,	0.00000,	0.00000,	0.00000,	0.00000,	0.00000,	0.00000,	0.00000,	0.00000,	0.00000,	0.00000,	-0.51676,	-0.52291,	-0.64599,	-0.68088,	-0.70731,	-0.85493,	-0.92345,	-0.89491,	-0.94904,	-1.09699,	-1.13769,	-1.15436,	-1.13056,	-1.17634,	-1.42677,	-1.65094,	-1.78275,	-1.82406,	-1.85770,	-1.83784,	-1.76958,	-1.79492,	-1.75533,	-1.70885,	-1.74490,	-1.84962,	-1.92394,	-1.97905,	-2.02386,	-2.01687,	-1.76334,	-1.54580,	-1.33943
1.00552,	1.01761,	1.05202,	1.04251,	1.18753,	1.38642,	1.43244,	1.40733,	1.34447,	1.26042,	1.10278,	0.88251,	0.65624,	0.55226,	0.47569,	0.28226,	0.17425,	0.30726,	0.29885,	0.06656,	-0.11589,	-0.20361,	-0.17228,	-0.18236,	-0.40554,	-0.67404,	-0.91689,	-1.01174,	-1.00536,	-0.96898,	-1.05827,	-1.28260,	-1.36797,	-1.43375,	-1.52371,	-1.73025,	-1.89705,	-1.96013,	-2.09830,	-2.20293,	-2.16809,	-2.02873,	-2.02505,	-2.11018,	-2.24771,	-2.30698,	-2.23897,	-2.19489,	-2.16879,	-2.05531,	-1.97644,	-1.98618,	-1.92467,	-1.85596,	-1.78750,	-1.71981,	-1.82676,	-1.97528,	-2.08448,	-2.11400,	-2.06889,	-2.07350,	-2.15296,	-2.37684,	-2.34967,	-2.21832,	-2.07651,	-2.01309,	-1.91975,	-1.64085,	-1.47706,	-1.36884,	-1.19129,	-0.93506,	-0.87705,	-0.89415,	-0.81211,	-0.56894,	-0.28370,	-0.08873,	0.05207,	0.31001,	0.49192,	0.38818,	0.26461,	0.13538,	0.11110,	0.32100,	0.41778,	0.40778,	0.30335,	0.11583,	0.11029,	0.22673,	0.29628,	0.09711,	-0.01194,	-0.04077,	-0.07700,	-0.21456,	-0.35445,	-0.32135,	-0.48630,	-0.71326,	-0.89568,	-0.94320,	-1.05427,	-1.15281,	-1.23892,	-1.35657,	-1.41575,	-1.46700,	-1.58219,	-1.59659,	-1.61978,	-1.81489,	-1.92113,	-1.94931,	-1.91723,	-1.73398,	-1.69840,	-1.82394,	-1.95799,	-2.14213,	-2.09689,	-1.92374,	-1.75584,	-1.80704,	-1.71932,	0.00000,	0.00000,	0.00000,	0.00000,	0.00000,	0.00000,	0.00000,	0.00000,	0.00000,	0.00000,	0.00000,	0.00000,	0.00000,	0.00000,	-0.94748,	-1.00160,	-1.00094,	-0.89614,	-0.82097,	-0.70160,	-0.57142,	-0.49782,	-0.31364,	-0.19088,	-0.09225,	0.00141,	-0.02381,	0.07632,	0.30399,	0.49329,	0.35577,	0.25086,	0.22967,	0.13698,	-0.01241,	-0.21506,	-0.13908,	-0.07888,	-0.05072,	-0.01325,	0.00197,	-0.09207,	-0.21404,	-0.32769,	-0.43847,	-0.48921,	-0.46870,	-0.45178,	-0.33019,	-0.13541,	-0.08821,	-0.10114,	-0.19689,	-0.34204,	-0.39820,	-0.38456,	-0.40982,	-0.46309,	-0.70952,	-0.88768,	-0.96357,	-1.06830,	-1.42870,	-1.72468,	-1.88502,	-2.10870,	-2.29404,	-2.40288,	-2.33613,	-2.46819,	-2.75164,	-2.95569,	-3.01672,	-3.13742,	-3.29941,	-3.44116,	-3.58572,	-3.63423,	-3.55411,	-3.59369,	-3.66807,	-3.72196,	-3.86829,	-3.94183,	-3.86992,	-3.79224,	-3.67427,	-3.56140,	-3.46939,	-3.35053,	-3.31166,	-3.13624,	0.00000,	0.00000,	0.00000,	0.00000,	0.00000,	0.00000,	0.00000,	0.00000,	-2.61269,	-2.53448,	-2.52511,	-2.45004,	-2.26438,	-2.10869,	-1.97041,	-1.78347,	-1.62047,	-1.48765,	-1.33403,	-1.29982,	-1.33587,	-1.30285,	-1.35125,	-1.31047,	-1.14716,	-1.02435,	-0.94335,	-0.86351,	-0.83148,	-0.91185,	-1.09774,	-1.17432,	-1.08306,	-1.03257,	-1.06960,	-1.07071,	-0.90420,	-0.79977,	-0.73436,	-0.72193,	-0.66309,	-0.67674,	0.00000,	0.00000,	0.00000,	0.00000,	0.00000,	0.00000,	0.00000,	0.00000,	0.00000,	0.00000,	0.00000,	-0.50608,	-0.59357,	-0.74961,	-0.75035,	-0.77485,	-0.84749,	-0.79814,	-0.81548,	-0.90991,	-1.08281,	-1.25019,	-1.23615,	-1.19207,	-1.28464,	-1.58812,	-1.81739,	-1.98057,	-2.06829,	-2.11618,	-2.07776,	-2.00845,	-2.07787,	-2.08908,	-1.99588,	-1.90922,	-1.88021,	-1.88428,	-1.94258,	-1.98646,	-1.93885,	-1.75649,	-1.56565,	-1.35362
0.99910,	1.13665,	1.18791,	1.17963,	1.23585,	1.33290,	1.42561,	1.43590,	1.27736,	1.14432,	1.01436,	0.78659,	0.50387,	0.41777,	0.38516,	0.18842,	0.06480,	0.16844,	0.19625,	0.03586,	-0.10340,	-0.16866,	-0.17770,	-0.23931,	-0.40082,	-0.52799,	-0.63975,	-0.66717,	-0.67248,	-0.70514,	-0.72223,	-0.87261,	-0.97153,	-1.08024,	-1.25314,	-1.47833,	-1.64775,	-1.77025,	-1.86351,	-1.91795,	-1.98859,	-1.97811,	-1.98941,	-2.07726,	-2.24691,	-2.26442,	-2.10869,	-2.07915,	-2.06207,	-1.93726,	-1.80352,	-1.72035,	-1.60925,	-1.54702,	-1.56989,	-1.67200,	-1.84817,	-1.97947,	-2.04963,	-2.02725,	-1.91625,	-1.97089,	-2.02439,	-2.22428,	-2.29505,	-2.22885,	-2.13403,	-2.09435,	-1.98291,	-1.75771,	-1.53509,	-1.32260,	-1.17907,	-0.98813,	-0.84439,	-0.74949,	-0.62110,	-0.34090,	0.03090,	0.19514,	0.30419,	0.54140,	0.73431,	0.69871,	0.59693,	0.45313,	0.37698,	0.43216,	0.47385,	0.49839,	0.46914,	0.30600,	0.29163,	0.25965,	0.30265,	0.18742,	0.09125,	0.06718,	0.01168,	-0.16272,	-0.31173,	-0.40793,	-0.58989,	-0.72457,	-0.93027,	-1.06996,	-1.14447,	-1.22154,	-1.32745,	-1.45072,	-1.44175,	-1.52529,	-1.67106,	-1.70939,	-1.71391,	-1.82251,	-1.90173,	-1.93847,	-1.94792,	-1.87470,	-1.78390,	-1.81181,	-1.86263,	-2.05196,	-2.05102,	-1.99369,	-1.80181,	-1.72576,	0.00000,	0.00000,	0.00000,	0.00000,	0.00000,	0.00000,	0.00000,	0.00000,	0.00000,	0.00000,	0.00000,	0.00000,	-1.17113,	-1.23156,	-1.11693,	-1.12021,	-1.25239,	-1.29951,	-1.16717,	-0.98499,	-0.79498,	-0.59304,	-0.45671,	-0.33770,	-0.21350,	-0.09918,	0.05121,	0.08050,	0.22826,	0.38344,	0.56759,	0.53241,	0.43515,	0.36779,	0.23911,	0.03677,	-0.16490,	-0.18516,	-0.17461,	-0.08649,	-0.06004,	-0.17049,	-0.26500,	-0.35194,	-0.44403,	-0.55342,	-0.51381,	-0.47937,	-0.51019,	-0.43456,	-0.22944,	-0.05504,	0.06247,	0.01247,	-0.17006,	-0.42170,	-0.54796,	-0.59196,	-0.57308,	-0.76870,	-0.91161,	-1.06888,	-1.22505,	-1.52253,	-1.81619,	-2.00090,	-2.19746,	-2.34928,	-2.40143,	-2.38149,	-2.54382,	-2.74476,	-2.92256,	-3.10066,	-3.25181,	-3.38826,	-3.51949,	-3.66475,	-3.60449,	-3.47002,	-3.54562,	-3.64025,	-3.66155,	-3.72855,	-3.76055,	-3.72436,	-3.70479,	-3.69415,	-3.62890,	-3.50496,	-3.28753,	-3.18226,	-2.99997,	-2.84723,	-2.77805,	0.00000,	0.00000,	0.00000,	0.00000,	-2.87323,	-2.84400,	-2.78110,	-2.75522,	-2.67465,	-2.54982,	-2.46265,	-2.34813,	-2.18712,	-2.01160,	-1.88514,	-1.69055,	-1.42929,	-1.34718,	-1.38018,	-1.35752,	-1.41640,	-1.39954,	-1.25129,	-1.14852,	-1.13384,	-1.10338,	-1.03634,	-1.00076,	-1.08442,	-1.09541,	-0.99529,	-0.93333,	-0.81150,	-0.72008,	-0.56620,	-0.49121,	-0.50184,	-0.53074,	-0.53742,	-0.66395,	-0.85799,	0.00000,	0.00000,	0.00000,	0.00000,	0.00000,	0.00000,	0.00000,	0.00000,	0.00000,	0.00000,	-0.69215,	-0.70285,	-0.72576,	-0.63450,	-0.61421,	-0.72391,	-0.80043,	-0.87403,	-0.93218,	-1.06139,	-1.23257,	-1.26264,	-1.33226,	-1.39576,	-1.63200,	-1.86923,	-2.04840,	-2.17801,	-2.24992,	-2.23362,	-2.25291,	-2.29365,	-2.23417,	-2.18735,	-2.13506,	-1.96372,	-1.83096,	-1.85584,	-1.87667,	-1.83755,	-1.79992,	-1.70987,	-1.57049
0.91902,	1.18882,	1.30439,	1.33815,	1.34938,	1.41258,	1.42068,	1.35361,	1.19071,	1.04135,	0.98743,	0.78259,	0.49505,	0.32793,	0.15481,	0.02732,	-0.00065,	0.05230,	0.03528,	-0.13135,	-0.20482,	-0.22288,	-0.23254,	-0.24512,	-0.24822,	-0.29810,	-0.41627,	-0.39674,	-0.38031,	-0.42020,	-0.39982,	-0.50178,	-0.63666,	-0.79964,	-1.04530,	-1.25795,	-1.42166,	-1.46937,	-1.54188,	-1.64369,	-1.77149,	-1.89421,	-1.92986,	-1.98506,	-2.11888,	-2.10432,	-2.01488,	-1.92617,	-1.82727,	-1.71328,	-1.59802,	-1.48224,	-1.25712,	-1.14427,	-1.29938,	-1.57719,	-1.79991,	-1.95226,	-2.09988,	-2.00017,	-1.80899,	-1.82013,	-1.89833,	-2.04637,	-2.17336,	-2.16148,	-2.16279,	-2.13808,	-2.00304,	-1.70563,	-1.44030,	-1.26621,	-1.18091,	-1.08126,	-0.89782,	-0.65471,	-0.42428,	-0.07813,	0.20632,	0.37316,	0.53899,	0.76519,	0.96215,	0.97786,	0.91167,	0.78324,	0.57851,	0.44551,	0.44424,	0.52559,	0.49990,	0.42113,	0.39567,	0.29606,	0.24244,	0.19825,	0.13630,	0.19879,	0.14061,	-0.01771,	-0.21714,	-0.37144,	-0.60207,	-0.80975,	-1.04445,	-1.24146,	-1.28642,	-1.27920,	-1.39177,	-1.47022,	-1.56039,	-1.63869,	-1.65605,	-1.66024,	-1.71257,	-1.84088,	-1.92130,	-1.90143,	-1.96224,	-1.98819,	-1.83745,	-1.73080,	-1.81108,	-1.91682,	-1.92240,	-1.89806,	-1.79936,	0.00000,	0.00000,	0.00000,	0.00000,	0.00000,	0.00000,	0.00000,	0.00000,	0.00000,	0.00000,	-0.99835,	-1.06363,	-1.14614,	-1.31715,	-1.32616,	-1.27980,	-1.31167,	-1.40624,	-1.46586,	-1.40643,	-1.25710,	-1.04756,	-0.68711,	-0.44521,	-0.35931,	-0.23827,	-0.08540,	-0.01262,	0.09356,	0.31323,	0.53614,	0.67911,	0.70213,	0.59999,	0.53157,	0.34477,	0.13589,	-0.11605,	-0.17662,	-0.16235,	-0.15309,	-0.17405,	-0.34912,	-0.45155,	-0.40596,	-0.42019,	-0.40990,	-0.43726,	-0.49474,	-0.50945,	-0.42734,	-0.26655,	-0.08119,	0.09466,	0.15050,	-0.05069,	-0.42036,	-0.64464,	-0.67826,	-0.75616,	-0.91233,	-0.94642,	-1.04077,	-1.25444,	-1.56931,	-1.94400,	-2.15753,	-2.37850,	-2.47083,	-2.50453,	-2.50529,	-2.63536,	-2.88021,	-3.08762,	-3.29879,	-3.41914,	-3.41048,	-3.51656,	-3.57482,	-3.56379,	-3.53026,	-3.56833,	-3.57152,	-3.54599,	-3.61351,	-3.69134,	-3.67997,	-3.71368,	-3.78890,	-3.72585,	-3.47433,	-3.24369,	-3.10286,	-2.87210,	-2.73784,	-2.76667,	-2.82129,	-2.98510,	-2.98222,	-2.95378,	-2.93696,	-2.95559,	-2.94670,	-2.89554,	-2.80941,	-2.66524,	-2.61165,	-2.57019,	-2.38806,	-2.24664,	-2.07293,	-1.88713,	-1.66856,	-1.45801,	-1.37243,	-1.33385,	-1.38412,	-1.41759,	-1.28439,	-1.22743,	-1.27437,	-1.22041,	-1.04334,	-0.96819,	-1.06050,	-1.02925,	-0.89554,	-0.82678,	-0.62944,	-0.47304,	-0.31681,	-0.27231,	-0.37098,	-0.47296,	-0.54752,	-0.61913,	-0.80149,	0.00000,	0.00000,	0.00000,	0.00000,	0.00000,	0.00000,	0.00000,	0.00000,	0.00000,	0.00000,	-0.85261,	-0.82168,	-0.74680,	-0.51630,	-0.40404,	-0.54179,	-0.70821,	-0.80311,	-0.89663,	-1.10137,	-1.24108,	-1.26185,	-1.36617,	-1.47430,	-1.67584,	-1.90738,	-2.06083,	-2.19744,	-2.25137,	-2.30265,	-2.34078,	-2.42444,	-2.44184,	-2.40898,	-2.37070,	-2.07675,	-1.78478,	-1.71386,	-1.66128,	-1.72126,	-1.75857,	-1.71868,	-1.68858
