-0.24269,	-0.27191,	-0.34160,	-0.31618,	-0.30588,	-0.20672,	-0.18022,	-0.14260,	-0.18801,	-0.14394,	-0.08558,	-0.13499,	-0.12200,	-0.02886,	-0.11107,	-0.28319,	-0.40732,	-0.56582,	-0.63529,	-0.51893,	-0.47187,	-0.35361,	-0.23087,	-0.16404,	-0.11733,	-0.14124,	-0.10490,	-0.12627,	-0.23403,	-0.33812,	-0.53472,	-0.66618,	-0.77593,	-0.90014,	-0.99308,	-1.02861,	-1.17340,	-1.32895,	-1.48731,	-1.64712,	-1.75941,	-1.80547,	-1.78695,	-1.87548,	-1.92405,	-1.75472,	-1.50595,	-1.24251,	-0.96611,	-1.00717,	-1.11957,	-1.04665,	-0.93571,	-0.80102,	-0.76174,	-0.70976,	-0.50827,	-0.41666,	-0.38960,	-0.37080,	-0.42657,	-0.57861,	-0.80074,	-0.89934,	-0.80748,	-0.72264,	-0.68093,	-0.69166,	-0.87288,	-1.08010,	-1.22307,	-1.23749,	-1.13603,	-1.07718,	-1.05341,	-1.30668,	-1.57036,	-1.66539,	-1.79454,	-1.86115,	-1.78544,	-1.81034,	-1.84475,	-1.87665,	-2.06571,	-2.27089,	-2.34258,	-2.44329,	-2.49063,	-2.64617,	-2.81701,	-3.04271,	-3.32199,	-3.57314,	-3.82822,	-4.03711,	-4.11638,	-4.19348,	-4.18664,	-4.10461,	-3.96188,	-3.88753,	-3.81092,	-3.83240,	-3.84625,	-3.85363,	-3.69800,	-3.65645,	-3.60460,	-3.54403,	-3.58537,	-3.64302,	-3.50910,	-3.52556,	-3.60784,	-3.46112,	-3.22205,	-3.01989,	-2.77150,	-2.55414,	-2.31853,	-2.33345,	-2.40388,	-2.45223,	-2.39927,	-2.32458,	-2.28795,	-2.29549,	-2.22276,	-2.17004,	-2.08650,	-1.90481,	-1.65048,	-1.51397,	-1.32929,	-1.26571,	-1.06029,	-0.92569,	-0.74023,	-0.67730,	-0.65934,	-0.52053,	-0.39459,	-0.42385,	-0.33921,	-0.29014,	-0.20588,	-0.06574,	-0.00400,	-0.05261,	-0.05980,	-0.22514,	-0.36010,	-0.58629,	-0.77805,	-0.92916,	-1.07981,	-1.17539,	-1.21325,	-1.21666,	-1.02371,	-0.89723,	-0.87252,	-0.90381,	-0.90148,	-0.95395,	-0.86666,	-0.84759,	-0.70850,	-0.73066,	-0.66165,	-0.62679,	-0.58478,	-0.50867,	-0.50165,	-0.60195,	-0.57527,	-0.71137,	-0.96017,	-1.04681,	-1.13549,	-1.43288,	-1.66843,	-1.98000,	-2.14069,	-2.39799,	-2.71203,	-3.06542,	-3.44887,	-3.72202,	-3.88526,	-3.92482,	-3.82575,	-3.85066,	-4.01449,	-4.23547,	-4.25292,	-4.29342,	-4.17278,	-4.04996,	-3.82593,	-3.68088,	-3.55712,	-3.63579,	-3.84252,	-3.89336,	-3.72219,	-3.66583,	-3.59489,	-3.66300,	-3.91825,	-4.14585,	-4.25573,	-4.41288,	-4.40761,	-4.45869,	-4.44424,	-4.46720,	-4.53863,	-4.55130,	-4.52387,	-4.51252,	-4.53291,	-4.53554,	-4.36601,	-4.09864,	-3.84779,	-3.60581,	-3.30511,	-3.27226,	-3.26169,	-3.27993,	-3.18011,	-3.20956,	-3.25187,	-3.24390,	-3.31749,	-3.42476,	-3.42160,	-3.43248,	-3.39182,	-3.41667,	-3.57207,	-3.61218,	-3.40155,	-3.33621,	-3.28929,	-3.44621,	-3.65673,	-3.85041,	-4.04627,	-4.08465,	-4.12013,	-4.18541,	-4.30202,	-4.44629,	-4.38702,	-4.31446,	-4.31819,	-4.25706,	-4.03590,	-3.80466,	-3.61726,	-3.57883,	-3.56640,	-3.52600,	-3.42696,	-3.36372,	-3.47928,	-3.52597,	-3.36049,	-3.18327,	-2.89424,	-2.53256,	-2.31047,	-2.06491,	0.00000,	0.00000,	0.00000,	0.00000,	0.00000,	0.00000,	0.00000,	0.00000,	0.00000,	0.00000,	0.00000,	0.00000,	0.00000,	0.00000,	0.00000,	0.00000,	0.00000,	0.00000,	-0.59734,	-0.47955,	-0.26495,	-0.07038,	0.06688,	0.35101,	0.38158,	0.31413,	0.31687,	0.31374,	0.39368,	0.55533
-0.30858,	-0.21531,	-0.22503,	-0.17484,	-0.11368,	0.04076,	0.18493,	0.21458,	0.15635,	0.19327,	0.13328,	-0.01836,	0.03776,	0.11679,	0.04142,	-0.09674,	-0.28846,	-0.40710,	-0.55500,	-0.51275,	-0.41516,	-0.30376,	-0.19627,	-0.12842,	-0.08909,	-0.06132,	-0.02397,	-0.06572,	-0.12860,	-0.10684,	-0.21973,	-0.49791,	-0.73714,	-0.81921,	-0.89042,	-0.95242,	-1.10386,	-1.26554,	-1.38452,	-1.62796,	-1.79600,	-1.82420,	-1.88920,	-2.04190,	-2.06884,	-1.90377,	-1.65756,	-1.34157,	-1.07528,	-1.01886,	-1.08544,	-1.05836,	-0.91712,	-0.81652,	-0.78118,	-0.68882,	-0.52001,	-0.39587,	-0.36133,	-0.40711,	-0.46765,	-0.56371,	-0.72793,	-0.91624,	-0.86433,	-0.63797,	-0.48909,	-0.44846,	-0.62636,	-0.87657,	-1.04156,	-1.17123,	-1.15736,	-1.03991,	-1.01036,	-1.26891,	-1.48180,	-1.57307,	-1.76399,	-1.79216,	-1.70977,	-1.64814,	-1.66654,	-1.83845,	-2.02013,	-2.26914,	-2.36588,	-2.39493,	-2.42563,	-2.48345,	-2.59842,	-2.91744,	-3.23070,	-3.42471,	-3.58431,	-3.85933,	-4.02723,	-4.02486,	-3.97917,	-3.92387,	-3.77623,	-3.72259,	-3.63805,	-3.70076,	-3.82364,	-3.76333,	-3.59800,	-3.58045,	-3.49632,	-3.41888,	-3.50707,	-3.54181,	-3.44182,	-3.42580,	-3.43732,	-3.39993,	-3.15927,	-2.96525,	-2.73497,	-2.46554,	-2.25478,	-2.26288,	-2.31136,	-2.43046,	-2.35227,	-2.17933,	-1.99947,	-1.97632,	-1.98286,	-1.88301,	-1.79822,	-1.69671,	-1.46170,	-1.33085,	-1.09579,	-1.02745,	-0.94768,	-0.80467,	-0.66413,	-0.62849,	-0.54478,	-0.33025,	-0.29250,	-0.37433,	-0.34485,	-0.32459,	-0.17460,	-0.12132,	-0.02885,	-0.01159,	-0.01408,	-0.13675,	-0.27665,	-0.46378,	-0.55894,	-0.74106,	-0.87362,	-0.89967,	-0.86963,	-0.91689,	-0.85366,	-0.72600,	-0.67707,	-0.75668,	-0.80448,	-0.87316,	-0.76662,	-0.73430,	-0.72727,	-0.75688,	-0.71051,	-0.74628,	-0.72487,	-0.58984,	-0.60421,	-0.67900,	-0.63489,	-0.74176,	-0.86372,	-1.02677,	-1.13970,	-1.44317,	-1.73765,	-2.02191,	-2.15044,	-2.37383,	-2.57614,	-2.92121,	-3.32554,	-3.57428,	-3.70731,	-3.75800,	-3.73494,	-3.69662,	-3.70506,	-3.88230,	-3.90122,	-3.96861,	-3.86778,	-3.69491,	-3.54703,	-3.38849,	-3.30318,	-3.49042,	-3.73669,	-3.75710,	-3.64326,	-3.59948,	-3.51796,	-3.57638,	-3.74037,	-4.08477,	-4.27536,	-4.42073,	-4.42209,	-4.42175,	-4.34478,	-4.33663,	-4.33545,	-4.36529,	-4.36100,	-4.34446,	-4.34074,	-4.35855,	-4.34630,	-4.10250,	-3.75417,	-3.50436,	-3.24532,	-3.25389,	-3.26158,	-3.24715,	-3.26059,	-3.30673,	-3.31139,	-3.34858,	-3.42612,	-3.41747,	-3.38827,	-3.38171,	-3.31514,	-3.36889,	-3.42981,	-3.49518,	-3.30614,	-3.19449,	-3.13305,	-3.24653,	-3.44160,	-3.67945,	-3.88589,	-3.97040,	-4.01804,	-3.99796,	-3.95903,	-4.01033,	-4.06066,	-4.07861,	-4.03674,	-3.96274,	-3.76464,	-3.57625,	-3.48486,	-3.47415,	-3.58135,	-3.60932,	-3.46715,	-3.42507,	-3.53269,	-3.45859,	-3.30275,	-3.19575,	-2.92452,	-2.59337,	-2.25323,	-1.99057,	0.00000,	0.00000,	0.00000,	0.00000,	0.00000,	0.00000,	0.00000,	0.00000,	0.00000,	0.00000,	0.00000,	0.00000,	0.00000,	0.00000,	0.00000,	0.00000,	0.00000,	0.00000,	0.00000,	-0.83389,	-0.67820,	-0.51602,	-0.29677,	-0.02228,	-0.00056,	0.03151,	0.08698,	0.10250,	0.26500,	0.43398
-0.34567,	-0.16681,	-0.11230,	-0.00480,	0.11758,	0.28922,	0.45706,	0.47216,	0.40984,	0.45008,	0.40750,	0.19797,	0.13975,	0.15579,	0.11643,	0.06908,	-0.11557,	-0.22084,	-0.35889,	-0.37851,	-0.28423,	-0.18354,	-0.10773,	-0.04171,	-0.03653,	-0.01882,	0.04461,	0.00950,	-0.12984,	-0.13142,	-0.13569,	-0.41098,	-0.71323,	-0.77820,	-0.84920,	-0.95037,	-1.11272,	-1.28106,	-1.39425,	-1.68016,	-1.90619,	-1.96103,	-2.00127,	-2.12745,	-2.18619,	-2.05170,	-1.80837,	-1.48120,	-1.23719,	-1.13844,	-1.09828,	-1.01489,	-0.82141,	-0.70046,	-0.68459,	-0.62510,	-0.54427,	-0.48312,	-0.41837,	-0.44448,	-0.55629,	-0.69517,	-0.76791,	-0.89294,	-0.85297,	-0.59506,	-0.41314,	-0.34340,	-0.47316,	-0.70000,	-0.88226,	-1.11967,	-1.21304,	-1.10865,	-0.99873,	-1.11922,	-1.31345,	-1.45615,	-1.68836,	-1.73821,	-1.68103,	-1.59177,	-1.51922,	-1.64039,	-1.78856,	-2.03709,	-2.19897,	-2.28525,	-2.35486,	-2.42859,	-2.46996,	-2.73632,	-3.07253,	-3.30243,	-3.37477,	-3.61394,	-3.84648,	-3.85703,	-3.81641,	-3.79223,	-3.66447,	-3.62051,	-3.52909,	-3.59212,	-3.72161,	-3.60768,	-3.39103,	-3.31059,	-3.25966,	-3.25966,	-3.36388,	-3.37916,	-3.29477,	-3.27025,	-3.21708,	-3.16893,	-2.96984,	-2.79845,	-2.61185,	-2.39284,	-2.20480,	-2.25036,	-2.25255,	-2.29911,	-2.22978,	-2.14661,	-1.90072,	-1.76554,	-1.76296,	-1.64310,	-1.57256,	-1.56817,	-1.39268,	-1.26121,	-0.97502,	-0.84120,	-0.79255,	-0.66604,	-0.55402,	-0.49417,	-0.42235,	-0.26304,	-0.23176,	-0.29618,	-0.29473,	-0.31980,	-0.16584,	-0.09605,	-0.00239,	0.05685,	0.06652,	-0.07569,	-0.19989,	-0.38520,	-0.42101,	-0.55013,	-0.68881,	-0.81037,	-0.75651,	-0.75464,	-0.77383,	-0.69396,	-0.63461,	-0.72142,	-0.75450,	-0.78150,	-0.66893,	-0.64871,	-0.72639,	-0.80436,	-0.77904,	-0.77568,	-0.77499,	-0.71031,	-0.74171,	-0.80901,	-0.78948,	-0.90225,	-0.94680,	-1.03285,	-1.11326,	-1.36762,	-1.65942,	-1.95753,	-2.09104,	-2.37793,	-2.55903,	-2.81852,	-3.18457,	-3.51193,	-3.65316,	-3.66640,	-3.67902,	-3.62599,	-3.50969,	-3.58093,	-3.56247,	-3.61234,	-3.55298,	-3.41553,	-3.33132,	-3.19560,	-3.09537,	-3.21539,	-3.46227,	-3.57826,	-3.55094,	-3.53836,	-3.47584,	-3.54904,	-3.65121,	-3.93306,	-4.10994,	-4.20322,	-4.21014,	-4.25725,	-4.18378,	-4.20871,	-4.17890,	-4.14452,	-4.13802,	-4.23335,	-4.25159,	-4.19649,	-4.20286,	-3.99056,	-3.63330,	-3.40684,	-3.19458,	-3.21051,	-3.21531,	-3.17626,	-3.21942,	-3.27358,	-3.25928,	-3.25616,	-3.34543,	-3.38645,	-3.38000,	-3.35310,	-3.25464,	-3.31555,	-3.31236,	-3.27519,	-3.07356,	-2.95039,	-2.89963,	-3.02842,	-3.20856,	-3.48310,	-3.73021,	-3.82584,	-3.85872,	-3.87369,	-3.75304,	-3.62000,	-3.65309,	-3.74182,	-3.75034,	-3.73680,	-3.59084,	-3.41868,	-3.33333,	-3.31702,	-3.47657,	-3.57100,	-3.46043,	-3.38271,	-3.45912,	-3.40869,	-3.29127,	-3.20440,	-2.92307,	-2.60118,	-2.23164,	-1.91403,	-1.56346,	0.00000,	0.00000,	0.00000,	0.00000,	0.00000,	0.00000,	0.00000,	0.00000,	0.00000,	0.00000,	0.00000,	0.00000,	0.00000,	0.00000,	0.00000,	0.00000,	0.00000,	0.00000,	0.00000,	-1.06196,	-0.95450,	-0.72407,	-0.39784,	-0.30051,	-0.25814,	-0.19493,	-0.11793,	0.09703,	0.25307
-0.20623,	0.00411,	0.22695,	0.35474,	0.37845,	0.48785,	0.54979,	0.55233,	0.60841,	0.59724,	0.57362,	0.40834,	0.34554,	0.29518,	0.25842,	0.31845,	0.22826,	0.09939,	-0.04995,	-0.19380,	-0.19771,	-0.11293,	-0.00252,	0.00408,	-0.00070,	0.10578,	0.16737,	0.16220,	0.00605,	-0.06258,	-0.14720,	-0.35911,	-0.57552,	-0.73670,	-0.82408,	-1.01441,	-1.28570,	-1.43859,	-1.59651,	-1.87503,	-1.99833,	-2.08027,	-2.12962,	-2.21205,	-2.24639,	-2.15547,	-1.97954,	-1.66682,	-1.38337,	-1.24377,	-1.13019,	-1.01500,	-0.83249,	-0.65441,	-0.57639,	-0.59173,	-0.60083,	-0.49790,	-0.45203,	-0.45188,	-0.50176,	-0.60422,	-0.67758,	-0.74346,	-0.66222,	-0.54989,	-0.39272,	-0.33736,	-0.50298,	-0.65850,	-0.84150,	-1.08698,	-1.14707,	-1.13307,	-1.07373,	-1.04419,	-1.12860,	-1.24078,	-1.51314,	-1.59706,	-1.56169,	-1.50287,	-1.36957,	-1.40620,	-1.57043,	-1.76636,	-1.91497,	-2.12273,	-2.30547,	-2.31468,	-2.33719,	-2.51777,	-2.75795,	-2.99447,	-3.14640,	-3.43725,	-3.59231,	-3.69487,	-3.69267,	-3.69485,	-3.68713,	-3.59665,	-3.50900,	-3.55677,	-3.56043,	-3.43690,	-3.29009,	-3.14159,	-3.01807,	-2.94093,	-3.05379,	-3.04603,	-2.97510,	-2.97637,	-2.93082,	-2.87945,	-2.81040,	-2.68524,	-2.51873,	-2.39410,	-2.25587,	-2.12505,	-2.04038,	-2.01946,	-1.96370,	-1.98134,	-1.82911,	-1.75247,	-1.58723,	-1.47973,	-1.41258,	-1.39132,	-1.38208,	-1.28651,	-1.01037,	-0.80719,	-0.61734,	-0.44537,	-0.44467,	-0.39529,	-0.32721,	-0.13377,	-0.06780,	-0.04346,	-0.03587,	-0.08026,	0.01297,	0.07079,	0.06136,	0.09376,	0.12299,	-0.03338,	-0.21162,	-0.28635,	-0.33205,	-0.47559,	-0.56763,	-0.71359,	-0.70699,	-0.82808,	-0.76589,	-0.68129,	-0.64905,	-0.66265,	-0.78143,	-0.81786,	-0.72861,	-0.73941,	-0.71797,	-0.71759,	-0.81317,	-0.81874,	-0.83671,	-0.75759,	-0.82021,	-0.87919,	-0.90296,	-1.02648,	-1.08215,	-1.09743,	-1.14403,	-1.28819,	-1.47413,	-1.76160,	-2.07145,	-2.35961,	-2.57248,	-2.83831,	-3.09230,	-3.38995,	-3.51424,	-3.62976,	-3.57858,	-3.52075,	-3.41179,	-3.29504,	-3.28762,	-3.33275,	-3.30928,	-3.28244,	-3.18497,	-2.97619,	-2.90761,	-2.95898,	-3.16943,	-3.23872,	-3.26887,	-3.28908,	-3.26739,	-3.36648,	-3.48993,	-3.69319,	-3.87561,	-3.98656,	-4.04591,	-4.14706,	-4.18769,	-4.14749,	-4.04527,	-4.01282,	-3.91875,	-3.96385,	-3.99123,	-4.05636,	-4.02585,	-3.83754,	-3.62386,	-3.36425,	-3.19172,	-3.20170,	-3.16859,	-3.14895,	-3.12501,	-3.04010,	-3.06877,	-3.07799,	-3.18571,	-3.20971,	-3.24224,	-3.21777,	-3.05410,	-3.03719,	-3.00873,	-2.92958,	-2.84489,	-2.81554,	-2.82125,	-2.94158,	-3.15224,	-3.35039,	-3.47421,	-3.58791,	-3.58528,	-3.58702,	-3.43644,	-3.31198,	-3.26968,	-3.31060,	-3.48355,	-3.51907,	-3.47612,	-3.37818,	-3.21298,	-3.19302,	-3.31176,	-3.29146,	-3.26613,	-3.24099,	-3.29961,	-3.22685,	-3.11933,	-3.03913,	-2.73833,	-2.44401,	-2.19599,	-1.92080,	-1.62052,	0.00000,	0.00000,	0.00000,	0.00000,	0.00000,	0.00000,	0.00000,	0.00000,	0.00000,	0.00000,	0.00000,	0.00000,	0.00000,	0.00000,	0.00000,	0.00000,	0.00000,	0.00000,	0.00000,	-1.39942,	-1.23895,	-1.08014,	-0.81349,	-0.60636,	-0.45480,	-0.31243,	-0.22651,	-0.03063,	0.10223
0.06379,	0.30341,	0.58215,	0.70512,	0.67413,	0.70520,	0.66375,	0.61701,	0.68328,	0.65410,	0.68160,	0.61141,	0.57006,	0.47241,	0.34634,	0.37532,	0.35415,	0.26607,	0.13260,	-0.06553,	-0.15139,	-0.12504,	0.05394,	0.08095,	-0.02335,	0.07258,	0.13288,	0.12519,	-0.01824,	-0.13037,	-0.20313,	-0.31442,	-0.47249,	-0.67554,	-0.84990,	-1.14991,	-1.43873,	-1.52715,	-1.68169,	-1.95615,	-2.06358,	-2.15018,	-2.19341,	-2.27741,	-2.32293,	-2.27725,	-2.19386,	-1.95217,	-1.66680,	-1.49549,	-1.37485,	-1.26743,	-1.08776,	-0.86404,	-0.63855,	-0.51816,	-0.54650,	-0.45795,	-0.44244,	-0.50600,	-0.53515,	-0.56129,	-0.53089,	-0.46849,	-0.41219,	-0.42012,	-0.35429,	-0.37193,	-0.49466,	-0.55000,	-0.67804,	-0.86676,	-0.94273,	-1.03997,	-1.09494,	-1.08593,	-1.12417,	-1.18663,	-1.41201,	-1.48774,	-1.45878,	-1.42395,	-1.32054,	-1.36603,	-1.53612,	-1.67555,	-1.72368,	-1.86672,	-2.17302,	-2.28749,	-2.33203,	-2.47692,	-2.60224,	-2.76566,	-2.91246,	-3.13771,	-3.24431,	-3.36630,	-3.41666,	-3.52887,	-3.57799,	-3.41301,	-3.32544,	-3.36877,	-3.32812,	-3.23732,	-3.12002,	-2.95537,	-2.79173,	-2.66300,	-2.77512,	-2.78966,	-2.74207,	-2.74880,	-2.73125,	-2.70100,	-2.65844,	-2.55669,	-2.39100,	-2.23335,	-2.17392,	-2.02455,	-1.85488,	-1.81164,	-1.78380,	-1.83311,	-1.73171,	-1.60531,	-1.35250,	-1.25425,	-1.17544,	-1.16871,	-1.23427,	-1.14813,	-0.97518,	-0.81175,	-0.56598,	-0.37523,	-0.34302,	-0.27864,	-0.22000,	-0.03279,	0.03962,	0.08756,	0.10486,	0.09298,	0.15687,	0.13001,	0.01437,	-0.04465,	-0.02770,	-0.04139,	-0.22146,	-0.33774,	-0.42752,	-0.63921,	-0.69195,	-0.75480,	-0.73352,	-0.82674,	-0.71873,	-0.61023,	-0.58802,	-0.62840,	-0.77838,	-0.76245,	-0.68174,	-0.70712,	-0.65010,	-0.67462,	-0.85209,	-0.91933,	-0.98142,	-0.92869,	-1.01850,	-1.07443,	-1.07369,	-1.14958,	-1.20455,	-1.27031,	-1.31548,	-1.36013,	-1.41651,	-1.51801,	-1.91770,	-2.34063,	-2.63489,	-2.95758,	-3.13193,	-3.33346,	-3.36682,	-3.37752,	-3.27853,	-3.25622,	-3.24618,	-3.16432,	-3.16337,	-3.10734,	-3.02412,	-3.02254,	-2.93832,	-2.78127,	-2.75220,	-2.79160,	-2.97806,	-2.99502,	-3.02234,	-3.09674,	-3.13846,	-3.27544,	-3.41492,	-3.60889,	-3.78624,	-3.92698,	-4.05526,	-4.07363,	-4.09799,	-4.06476,	-3.93545,	-3.93870,	-3.78361,	-3.70195,	-3.68703,	-3.72017,	-3.66235,	-3.53461,	-3.43952,	-3.26218,	-3.14790,	-3.10134,	-3.02707,	-3.00364,	-2.92976,	-2.79988,	-2.82532,	-2.79740,	-2.86336,	-2.87300,	-2.95011,	-3.02328,	-2.88357,	-2.79520,	-2.71209,	-2.66653,	-2.72493,	-2.80044,	-2.87920,	-2.86870,	-2.95941,	-3.13730,	-3.16243,	-3.25379,	-3.24677,	-3.24098,	-3.15969,	-3.04591,	-2.94404,	-2.94486,	-3.14872,	-3.25926,	-3.33019,	-3.26096,	-3.05123,	-3.01851,	-3.09669,	-3.02652,	-3.03501,	-3.05141,	-3.13150,	-3.08576,	-2.99232,	-2.93344,	-2.64999,	-2.39576,	-2.25849,	-2.09844,	-1.87226,	-1.63679,	0.00000,	0.00000,	0.00000,	0.00000,	0.00000,	0.00000,	0.00000,	0.00000,	0.00000,	0.00000,	0.00000,	0.00000,	0.00000,	0.00000,	0.00000,	0.00000,	0.00000,	0.00000,	-1.42134,	-1.28984,	-1.23340,	-1.08818,	-0.88975,	-0.68171,	-0.47218,	-0.39486,	-0.26482,	-0.15286
0.24529,	0.44911,	0.76954,	0.91076,	0.83630,	0.76865,	0.76898,	0.72483,	0.71291,	0.73216,	0.83403,	0.86237,	0.80186,	0.65810,	0.48067,	0.44581,	0.42726,	0.38265,	0.40425,	0.24011,	0.06358,	0.01902,	0.12029,	0.12505,	0.01023,	-0.02734,	0.02108,	0.09160,	-0.04235,	-0.26875,	-0.35848,	-0.38326,	-0.55091,	-0.75102,	-0.88501,	-1.17368,	-1.47592,	-1.59153,	-1.66180,	-1.88902,	-2.08517,	-2.15401,	-2.16031,	-2.21718,	-2.30100,	-2.31029,	-2.25357,	-2.06890,	-1.87233,	-1.77557,	-1.59622,	-1.46424,	-1.32780,	-1.08622,	-0.80392,	-0.53265,	-0.39811,	-0.34535,	-0.36259,	-0.39434,	-0.47548,	-0.59625,	-0.57046,	-0.37472,	-0.32561,	-0.37460,	-0.29274,	-0.25284,	-0.34513,	-0.44600,	-0.52952,	-0.65017,	-0.82950,	-0.95005,	-1.03513,	-1.06743,	-1.12562,	-1.23149,	-1.36423,	-1.36351,	-1.32587,	-1.32778,	-1.24302,	-1.31386,	-1.55207,	-1.68930,	-1.71242,	-1.79151,	-2.06221,	-2.28487,	-2.38405,	-2.39781,	-2.44053,	-2.59798,	-2.73736,	-2.81692,	-2.89226,	-3.00450,	-3.04206,	-3.15788,	-3.26500,	-3.20919,	-3.15480,	-3.13916,	-3.15558,	-3.03197,	-2.82182,	-2.60029,	-2.45241,	-2.44213,	-2.55097,	-2.56503,	-2.53711,	-2.57094,	-2.53637,	-2.44569,	-2.41494,	-2.33288,	-2.20736,	-2.07238,	-2.03357,	-1.95060,	-1.81668,	-1.62894,	-1.54897,	-1.64382,	-1.61387,	-1.37013,	-1.11170,	-1.07932,	-1.01426,	-0.96861,	-1.05404,	-1.05990,	-1.00324,	-0.83841,	-0.66390,	-0.45987,	-0.26481,	-0.08175,	0.02474,	0.11194,	0.14674,	0.18505,	0.20705,	0.18849,	0.25936,	0.25237,	0.02205,	-0.14313,	-0.17564,	-0.14417,	-0.24329,	-0.35630,	-0.51818,	-0.65078,	-0.64180,	-0.67949,	-0.71880,	-0.73126,	-0.63102,	-0.57861,	-0.56299,	-0.54995,	-0.66886,	-0.65551,	-0.58666,	-0.52103,	-0.57140,	-0.73175,	-0.90870,	-0.98460,	-1.04727,	-1.12913,	-1.27268,	-1.30786,	-1.23746,	-1.26403,	-1.28090,	-1.30619,	-1.43476,	-1.49287,	-1.48315,	-1.46130,	-1.76674,	-2.20224,	-2.60496,	-2.84199,	-2.93573,	-3.13404,	-3.24119,	-3.16644,	-3.03445,	-3.06618,	-3.14406,	-3.08316,	-3.07959,	-3.02408,	-2.91322,	-2.77264,	-2.71842,	-2.68221,	-2.66613,	-2.69406,	-2.82497,	-2.89626,	-2.93900,	-3.02769,	-3.09887,	-3.26815,	-3.40510,	-3.50122,	-3.69612,	-3.88055,	-4.02101,	-4.00507,	-3.92049,	-3.79680,	-3.72740,	-3.67611,	-3.44324,	-3.33076,	-3.39274,	-3.38503,	-3.28125,	-3.20880,	-3.17205,	-3.01083,	-2.97344,	-3.01735,	-3.01079,	-2.88911,	-2.78358,	-2.70346,	-2.65051,	-2.50240,	-2.42397,	-2.45253,	-2.59238,	-2.75960,	-2.71017,	-2.64589,	-2.54626,	-2.40189,	-2.50818,	-2.68377,	-2.77140,	-2.67452,	-2.61807,	-2.70180,	-2.77697,	-2.82115,	-2.72576,	-2.73734,	-2.87138,	-2.87037,	-2.75737,	-2.78668,	-2.95584,	-3.01491,	-3.09968,	-3.11568,	-3.03838,	-2.95971,	-2.99791,	-2.99876,	-2.96620,	-2.93295,	-2.95613,	-2.94191,	-2.90526,	-2.86194,	-2.60364,	-2.37993,	-2.29656,	-2.12728,	-1.94352,	-1.78306,	0.00000,	0.00000,	0.00000,	0.00000,	0.00000,	0.00000,	0.00000,	0.00000,	0.00000,	0.00000,	0.00000,	0.00000,	0.00000,	0.00000,	0.00000,	0.00000,	0.00000,	0.00000,	-1.36724,	-1.34614,	-1.32348,	-1.25609,	-1.11622,	-0.95169,	-0.79357,	-0.67225,	-0.51607,	-0.38734
0.42840,	0.58850,	0.79050,	0.86687,	0.86990,	0.82041,	0.75302,	0.69791,	0.80469,	0.91318,	0.93529,	0.92310,	0.96011,	0.86772,	0.68545,	0.64528,	0.64983,	0.64275,	0.65766,	0.49386,	0.39372,	0.35056,	0.21378,	0.02445,	-0.04398,	-0.08592,	-0.08234,	-0.00529,	-0.04380,	-0.23713,	-0.40844,	-0.47116,	-0.61410,	-0.78186,	-0.94392,	-1.25795,	-1.47653,	-1.51584,	-1.60234,	-1.85278,	-1.98868,	-2.00116,	-2.08663,	-2.19081,	-2.17043,	-2.10981,	-2.07317,	-1.93418,	-1.85260,	-1.86101,	-1.74285,	-1.64314,	-1.44159,	-1.14316,	-0.93320,	-0.70287,	-0.39268,	-0.24337,	-0.30058,	-0.36199,	-0.42191,	-0.52685,	-0.58940,	-0.41931,	-0.30065,	-0.29423,	-0.23271,	-0.19098,	-0.18592,	-0.22824,	-0.37848,	-0.60835,	-0.78380,	-0.81197,	-0.97489,	-1.11320,	-1.10236,	-1.11988,	-1.19342,	-1.12442,	-1.06230,	-1.09502,	-1.15680,	-1.38696,	-1.59595,	-1.63749,	-1.70830,	-1.90155,	-2.10091,	-2.24322,	-2.36487,	-2.36459,	-2.31862,	-2.34758,	-2.47602,	-2.53883,	-2.52976,	-2.53661,	-2.57936,	-2.77370,	-2.90387,	-2.86815,	-2.89711,	-2.96315,	-2.93592,	-2.66582,	-2.45730,	-2.31811,	-2.17439,	-2.13099,	-2.21620,	-2.20037,	-2.18814,	-2.26453,	-2.28526,	-2.26872,	-2.17736,	-1.99655,	-1.95274,	-2.02270,	-2.01612,	-1.89476,	-1.81245,	-1.61123,	-1.42924,	-1.38840,	-1.38054,	-1.16178,	-0.88905,	-0.84886,	-0.86070,	-0.94911,	-1.05027,	-1.00886,	-1.02906,	-0.98052,	-0.80077,	-0.43886,	-0.16730,	-0.00847,	0.17901,	0.36337,	0.34269,	0.35018,	0.38680,	0.37125,	0.41319,	0.29136,	0.02528,	-0.07498,	-0.16682,	-0.31925,	-0.40540,	-0.39710,	-0.55540,	-0.69103,	-0.61463,	-0.47313,	-0.50443,	-0.57441,	-0.50402,	-0.44816,	-0.43892,	-0.47711,	-0.55153,	-0.43138,	-0.36762,	-0.39746,	-0.55524,	-0.68256,	-0.86231,	-1.06231,	-1.14557,	-1.18383,	-1.35903,	-1.38382,	-1.25672,	-1.24273,	-1.24960,	-1.37038,	-1.55013,	-1.51463,	-1.48662,	-1.56262,	-1.80107,	-2.09429,	-2.48321,	-2.69240,	-2.72818,	-2.79717,	-2.94754,	-2.99737,	-2.89665,	-2.89282,	-3.00059,	-3.04403,	-3.06028,	-2.92109,	-2.77615,	-2.67253,	-2.63261,	-2.52833,	-2.56506,	-2.74931,	-2.86747,	-2.80660,	-2.81106,	-2.89915,	-2.97647,	-3.14642,	-3.28989,	-3.46896,	-3.69902,	-3.77729,	-3.87096,	-3.97215,	-3.85430,	-3.53197,	-3.40677,	-3.36041,	-3.12190,	-2.89027,	-2.91203,	-2.95365,	-2.84613,	-2.74719,	-2.73053,	-2.69769,	-2.80880,	-2.86638,	-2.86075,	-2.80309,	-2.73902,	-2.56292,	-2.42237,	-2.30434,	-2.15707,	-2.03380,	-2.13874,	-2.35241,	-2.38100,	-2.37105,	-2.30124,	-2.21411,	-2.34354,	-2.43967,	-2.45661,	-2.41204,	-2.34299,	-2.27732,	-2.33510,	-2.43863,	-2.34329,	-2.27080,	-2.45413,	-2.62092,	-2.59482,	-2.61114,	-2.72618,	-2.81908,	-2.95248,	-2.97485,	-2.98912,	-3.02243,	-3.09724,	-3.00438,	-2.87230,	-2.90050,	-2.93166,	-2.78128,	-2.68689,	-2.66543,	-2.44854,	-2.25719,	-2.20381,	-2.13644,	-2.02935,	-1.79518,	-1.62752,	-1.60785,	0.00000,	0.00000,	0.00000,	0.00000,	0.00000,	0.00000,	0.00000,	0.00000,	0.00000,	0.00000,	0.00000,	0.00000,	0.00000,	0.00000,	0.00000,	0.00000,	-1.45589,	-1.39099,	-1.29257,	-1.36596,	-1.38887,	-1.20212,	-0.99946,	-0.83100,	-0.60388,	-0.42882
0.62113,	0.72849,	0.77098,	0.86378,	0.91435,	0.87608,	0.73387,	0.74541,	0.95107,	1.02495,	0.97702,	0.90308,	0.93404,	0.86740,	0.75498,	0.80628,	0.87079,	0.83698,	0.81509,	0.71456,	0.63419,	0.61376,	0.37896,	0.03343,	-0.03984,	-0.06164,	-0.01281,	-0.00780,	-0.05550,	-0.15492,	-0.27751,	-0.44062,	-0.64224,	-0.84239,	-1.06903,	-1.25128,	-1.38462,	-1.44830,	-1.60055,	-1.77666,	-1.81604,	-1.92090,	-2.06207,	-2.14062,	-2.04958,	-1.99681,	-1.99211,	-1.86485,	-1.85911,	-1.94698,	-1.80726,	-1.56921,	-1.36325,	-1.11057,	-0.92232,	-0.76758,	-0.43071,	-0.24939,	-0.27054,	-0.34548,	-0.40660,	-0.46057,	-0.54705,	-0.46773,	-0.33561,	-0.23270,	-0.21526,	-0.07596,	0.02735,	-0.02165,	-0.25041,	-0.54907,	-0.67735,	-0.76353,	-0.97984,	-1.10467,	-1.05069,	-1.04271,	-1.12913,	-1.03635,	-0.93437,	-0.99785,	-1.16183,	-1.39370,	-1.58994,	-1.60555,	-1.64358,	-1.91236,	-2.07569,	-2.13110,	-2.19165,	-2.24035,	-2.27291,	-2.22261,	-2.26112,	-2.26744,	-2.25054,	-2.16592,	-2.25635,	-2.37217,	-2.45591,	-2.51574,	-2.59580,	-2.66189,	-2.50590,	-2.31403,	-2.21899,	-2.13317,	-2.02704,	-1.94029,	-1.92903,	-1.80690,	-1.79682,	-1.96982,	-2.05951,	-2.00915,	-1.91264,	-1.76380,	-1.72839,	-1.88113,	-1.88212,	-1.79651,	-1.77701,	-1.64467,	-1.48274,	-1.28641,	-1.21317,	-0.99434,	-0.80141,	-0.70185,	-0.81557,	-0.95693,	-1.01176,	-1.00650,	-1.04237,	-1.00110,	-0.68766,	-0.32698,	-0.14334,	-0.02160,	0.22393,	0.48534,	0.45377,	0.47325,	0.53805,	0.51758,	0.51560,	0.41719,	0.17399,	0.06320,	-0.02553,	-0.32327,	-0.47448,	-0.46295,	-0.57501,	-0.67976,	-0.66441,	-0.41306,	-0.37018,	-0.38446,	-0.42840,	-0.34462,	-0.33831,	-0.31821,	-0.25716,	-0.19775,	-0.20196,	-0.33752,	-0.46792,	-0.58383,	-0.78465,	-1.01529,	-1.14666,	-1.22326,	-1.41728,	-1.42802,	-1.30059,	-1.29668,	-1.33089,	-1.35779,	-1.45895,	-1.47816,	-1.47833,	-1.65220,	-1.84530,	-2.03968,	-2.37454,	-2.55027,	-2.64981,	-2.61646,	-2.73716,	-2.82340,	-2.85440,	-2.80174,	-2.89477,	-2.91676,	-2.81921,	-2.70853,	-2.64573,	-2.64393,	-2.49172,	-2.33517,	-2.49588,	-2.79419,	-2.90728,	-2.77366,	-2.73812,	-2.78921,	-2.85032,	-3.00520,	-3.20764,	-3.41381,	-3.63093,	-3.74895,	-3.77313,	-3.88445,	-3.75917,	-3.35404,	-3.15808,	-3.04728,	-2.91780,	-2.63771,	-2.51636,	-2.43700,	-2.39545,	-2.33385,	-2.36652,	-2.43121,	-2.52480,	-2.57846,	-2.56640,	-2.58490,	-2.50355,	-2.29934,	-2.21426,	-2.16482,	-2.01216,	-1.82110,	-1.86528,	-1.97755,	-1.99148,	-2.05368,	-2.12275,	-2.07822,	-2.09270,	-2.16729,	-2.14497,	-2.13019,	-2.08422,	-1.93794,	-1.98110,	-2.11506,	-2.13348,	-2.05324,	-2.14305,	-2.25360,	-2.33396,	-2.40035,	-2.54716,	-2.70859,	-2.73036,	-2.73411,	-2.86350,	-3.03813,	-3.06687,	-2.85582,	-2.76098,	-2.85701,	-2.87228,	-2.63467,	-2.51179,	-2.50474,	-2.35371,	-2.22616,	-2.23563,	-2.20912,	-2.05399,	-1.83003,	-1.63287,	-1.62165,	-1.68270,	-1.58010,	-1.55573,	-1.61781,	0.00000,	0.00000,	0.00000,	0.00000,	0.00000,	0.00000,	0.00000,	0.00000,	0.00000,	0.00000,	0.00000,	0.00000,	0.00000,	-1.39731,	-1.32751,	-1.44280,	-1.52554,	-1.39149,	-1.23221,	-1.03085,	-0.69360,	-0.44763
0.81656,	0.90191,	0.84143,	0.89956,	0.91964,	0.88289,	0.79395,	0.79938,	0.87273,	0.87298,	0.95587,	0.95531,	0.90247,	0.79802,	0.66457,	0.73219,	0.87818,	0.85951,	0.77658,	0.66235,	0.55563,	0.56591,	0.50616,	0.26706,	0.14853,	0.08201,	0.18969,	0.19400,	0.05492,	-0.06744,	-0.15686,	-0.36860,	-0.63848,	-0.88385,	-1.13550,	-1.25151,	-1.40136,	-1.58244,	-1.74376,	-1.82512,	-1.90228,	-2.10587,	-2.12858,	-2.07747,	-2.02580,	-2.06908,	-2.13994,	-2.04052,	-1.97407,	-1.97545,	-1.77342,	-1.44284,	-1.24369,	-1.04040,	-0.77210,	-0.55133,	-0.30834,	-0.21716,	-0.18001,	-0.15070,	-0.21193,	-0.31468,	-0.42073,	-0.39337,	-0.27054,	-0.12382,	-0.13621,	-0.03688,	0.02247,	-0.05817,	-0.22847,	-0.44146,	-0.60511,	-0.81277,	-0.97200,	-0.97817,	-0.97557,	-1.05460,	-1.23754,	-1.22674,	-1.07469,	-1.05935,	-1.17310,	-1.34625,	-1.55486,	-1.60585,	-1.57680,	-1.72458,	-1.87940,	-1.93891,	-1.91942,	-1.91358,	-2.03396,	-2.05237,	-2.02656,	-1.96445,	-1.97305,	-1.94416,	-2.09615,	-2.17024,	-2.24410,	-2.37332,	-2.41228,	-2.37943,	-2.23621,	-2.23781,	-2.16770,	-1.96232,	-1.87366,	-1.79212,	-1.71342,	-1.55138,	-1.47705,	-1.61613,	-1.72236,	-1.68491,	-1.66088,	-1.60715,	-1.53980,	-1.52650,	-1.51206,	-1.55252,	-1.59641,	-1.46164,	-1.34653,	-1.18420,	-1.10916,	-0.95173,	-0.85597,	-0.74745,	-0.86958,	-0.99976,	-1.03316,	-1.09126,	-1.10992,	-0.97381,	-0.63877,	-0.41526,	-0.29504,	-0.06828,	0.18463,	0.42438,	0.46538,	0.48944,	0.58612,	0.61304,	0.57419,	0.46827,	0.22359,	0.07037,	0.01004,	-0.18255,	-0.36424,	-0.44287,	-0.51932,	-0.51309,	-0.57038,	-0.47139,	-0.44660,	-0.40056,	-0.48929,	-0.40618,	-0.37594,	-0.31909,	-0.21586,	-0.27616,	-0.32477,	-0.39748,	-0.47861,	-0.63546,	-0.79186,	-0.82838,	-0.95570,	-1.15463,	-1.36909,	-1.45275,	-1.36537,	-1.32044,	-1.34279,	-1.27196,	-1.29272,	-1.39226,	-1.43414,	-1.51454,	-1.65394,	-1.87388,	-2.22408,	-2.37789,	-2.53518,	-2.55095,	-2.63743,	-2.66957,	-2.73986,	-2.69310,	-2.78431,	-2.80782,	-2.67573,	-2.66152,	-2.71212,	-2.70021,	-2.49311,	-2.37694,	-2.51436,	-2.64941,	-2.73227,	-2.69334,	-2.68897,	-2.78848,	-2.84514,	-2.91938,	-3.12735,	-3.35573,	-3.57571,	-3.74653,	-3.71102,	-3.63629,	-3.47616,	-3.18603,	-3.01558,	-2.78804,	-2.67490,	-2.45867,	-2.27993,	-2.09821,	-2.08119,	-2.09484,	-2.16739,	-2.26744,	-2.30761,	-2.34908,	-2.33319,	-2.27863,	-2.16090,	-2.06147,	-2.04128,	-1.90099,	-1.73494,	-1.61934,	-1.63778,	-1.67211,	-1.63804,	-1.68166,	-1.82164,	-1.83028,	-1.79428,	-1.89856,	-1.92888,	-1.89184,	-1.81903,	-1.69575,	-1.73752,	-1.78285,	-1.80339,	-1.80999,	-1.91134,	-1.97431,	-2.08937,	-2.23085,	-2.46665,	-2.69713,	-2.67295,	-2.65455,	-2.78154,	-2.91340,	-2.88757,	-2.74271,	-2.74621,	-2.74718,	-2.66827,	-2.46847,	-2.38733,	-2.44252,	-2.37050,	-2.23532,	-2.23546,	-2.23245,	-2.11793,	-2.02069,	-1.86031,	-1.73724,	-1.73530,	-1.66761,	-1.64516,	-1.59904,	-1.59065,	-1.69499,	-1.77500,	0.00000,	0.00000,	0.00000,	0.00000,	0.00000,	0.00000,	0.00000,	0.00000,	0.00000,	0.00000,	-1.45393,	-1.44384,	-1.39625,	-1.34663,	-1.30962,	-1.26350,	-1.09707,	-0.73687,	-0.41114
0.94841,	1.10580,	1.08433,	0.99997,	1.02474,	1.09864,	0.98436,	0.82319,	0.76163,	0.83952,	0.99620,	0.97649,	0.93910,	0.89941,	0.75542,	0.64212,	0.69951,	0.76607,	0.69599,	0.56817,	0.55668,	0.54625,	0.48917,	0.39378,	0.32792,	0.23572,	0.31066,	0.29070,	0.12596,	0.03175,	-0.05367,	-0.30853,	-0.66592,	-0.84942,	-1.00109,	-1.24264,	-1.44544,	-1.59118,	-1.80231,	-1.97659,	-2.11791,	-2.22457,	-2.15950,	-2.17108,	-2.14372,	-2.11657,	-2.13569,	-2.12996,	-2.10241,	-1.97107,	-1.71592,	-1.38926,	-1.07300,	-0.88031,	-0.69774,	-0.42020,	-0.15209,	-0.08878,	-0.05273,	-0.00672,	-0.06185,	-0.11781,	-0.18788,	-0.18551,	-0.11820,	0.06123,	0.12983,	0.03288,	-0.01732,	0.02527,	-0.07996,	-0.31855,	-0.53323,	-0.68754,	-0.82382,	-0.98266,	-1.06589,	-1.09292,	-1.23404,	-1.33118,	-1.27802,	-1.16610,	-1.16353,	-1.30643,	-1.43801,	-1.52010,	-1.60737,	-1.69679,	-1.76975,	-1.80449,	-1.75621,	-1.72639,	-1.84219,	-1.79578,	-1.68766,	-1.62952,	-1.70688,	-1.75434,	-1.84146,	-2.01539,	-2.16043,	-2.16660,	-2.16835,	-2.23821,	-2.20154,	-2.18174,	-2.03542,	-1.88701,	-1.81867,	-1.63333,	-1.45730,	-1.32945,	-1.29309,	-1.32772,	-1.36904,	-1.36678,	-1.31109,	-1.26830,	-1.32097,	-1.29688,	-1.25339,	-1.33686,	-1.41954,	-1.30350,	-1.20728,	-1.03035,	-0.94219,	-0.89345,	-0.89646,	-0.82466,	-0.79297,	-0.93004,	-1.02577,	-0.98525,	-1.00697,	-1.02213,	-0.79885,	-0.55561,	-0.34347,	-0.15730,	0.03400,	0.35616,	0.55704,	0.58721,	0.58143,	0.61612,	0.59086,	0.43284,	0.21596,	0.09961,	-0.05330,	-0.23392,	-0.33679,	-0.37438,	-0.42387,	-0.40495,	-0.51117,	-0.49147,	-0.46276,	-0.43203,	-0.54913,	-0.52131,	-0.37837,	-0.36046,	-0.36982,	-0.35629,	-0.34387,	-0.47530,	-0.60315,	-0.71084,	-0.73646,	-0.75326,	-0.90996,	-1.05882,	-1.19267,	-1.29950,	-1.32862,	-1.27822,	-1.22837,	-1.16113,	-1.14789,	-1.18085,	-1.31213,	-1.41441,	-1.47537,	-1.66866,	-2.05104,	-2.26693,	-2.46459,	-2.46937,	-2.44785,	-2.41038,	-2.47483,	-2.51454,	-2.57412,	-2.67670,	-2.70160,	-2.66206,	-2.66895,	-2.73548,	-2.63510,	-2.50872,	-2.45392,	-2.51966,	-2.67206,	-2.65041,	-2.60581,	-2.71168,	-2.87637,	-2.96557,	-3.09089,	-3.31769,	-3.50728,	-3.53859,	-3.51699,	-3.45294,	-3.24113,	-2.99576,	-2.86763,	-2.62970,	-2.51381,	-2.29726,	-2.05281,	-1.84975,	-1.84663,	-1.94561,	-1.94321,	-2.00495,	-2.14533,	-2.14509,	-2.04601,	-2.01811,	-1.97363,	-1.90945,	-1.77952,	-1.59124,	-1.49682,	-1.36997,	-1.27671,	-1.23536,	-1.28010,	-1.36741,	-1.43867,	-1.45312,	-1.43424,	-1.46362,	-1.61512,	-1.75111,	-1.65729,	-1.49815,	-1.49557,	-1.46511,	-1.46183,	-1.49777,	-1.61653,	-1.72515,	-1.88227,	-2.12278,	-2.32733,	-2.51954,	-2.64684,	-2.61292,	-2.57266,	-2.69441,	-2.78215,	-2.74063,	-2.68590,	-2.62566,	-2.61623,	-2.43479,	-2.27771,	-2.28936,	-2.32458,	-2.25047,	-2.17683,	-2.18285,	-2.16638,	-2.07970,	-1.99507,	-1.96195,	-1.89383,	-1.78909,	-1.78031,	-1.72886,	-1.72199,	-1.84893,	-1.88886,	-1.97160,	-2.08721,	-2.16389,	0.00000,	0.00000,	0.00000,	0.00000,	0.00000,	0.00000,	0.00000,	0.00000,	-1.40884,	-1.25077,	-1.25212,	-1.24427,	-1.12065,	-0.88586,	-0.61366,	-0.37655
0.98405,	1.20101,	1.31245,	1.25856,	1.20479,	1.25874,	1.19995,	1.01927,	0.87587,	0.94588,	1.07034,	1.03063,	0.98542,	0.95134,	0.84981,	0.63146,	0.61722,	0.70766,	0.70541,	0.66764,	0.68715,	0.65577,	0.62717,	0.61874,	0.55939,	0.40212,	0.38491,	0.33050,	0.14875,	0.02218,	-0.12069,	-0.41260,	-0.75124,	-0.86062,	-0.89517,	-1.12760,	-1.44632,	-1.69957,	-1.89996,	-2.04262,	-2.18350,	-2.22925,	-2.17593,	-2.26363,	-2.29807,	-2.25448,	-2.17121,	-2.14605,	-2.08694,	-1.87062,	-1.59394,	-1.27849,	-0.95238,	-0.78260,	-0.63636,	-0.33339,	-0.05479,	0.00792,	0.05647,	0.08009,	-0.02724,	-0.08931,	-0.10906,	-0.07026,	0.01752,	0.23626,	0.38345,	0.29277,	0.15235,	0.15389,	0.12803,	-0.03084,	-0.28206,	-0.46723,	-0.67038,	-1.01381,	-1.22147,	-1.28399,	-1.32678,	-1.33798,	-1.28577,	-1.09326,	-0.99623,	-1.07996,	-1.19734,	-1.36441,	-1.53062,	-1.56263,	-1.56861,	-1.63437,	-1.63851,	-1.63555,	-1.75169,	-1.69789,	-1.54609,	-1.47732,	-1.57263,	-1.65150,	-1.69584,	-1.81007,	-1.97410,	-2.00195,	-1.98046,	-2.04746,	-2.11533,	-2.13274,	-1.97826,	-1.90513,	-1.84774,	-1.64844,	-1.41397,	-1.22702,	-1.15563,	-1.06442,	-1.04027,	-1.01840,	-0.95387,	-0.94438,	-1.04603,	-1.05981,	-1.08313,	-1.24579,	-1.34951,	-1.24497,	-1.17376,	-1.05200,	-0.96218,	-0.92690,	-0.93106,	-0.82095,	-0.68786,	-0.71013,	-0.83616,	-0.86838,	-0.89923,	-0.95305,	-0.84294,	-0.65971,	-0.38957,	-0.21276,	-0.05842,	0.26194,	0.56046,	0.68590,	0.64979,	0.68002,	0.63302,	0.49656,	0.30899,	0.13225,	-0.10459,	-0.26946,	-0.32341,	-0.35975,	-0.39413,	-0.38475,	-0.54168,	-0.65093,	-0.64818,	-0.60076,	-0.66851,	-0.59041,	-0.41527,	-0.35978,	-0.45290,	-0.51563,	-0.45803,	-0.49938,	-0.60875,	-0.72216,	-0.71767,	-0.78752,	-0.95354,	-1.09260,	-1.18049,	-1.20744,	-1.25267,	-1.14496,	-1.04906,	-0.99290,	-1.00949,	-1.06069,	-1.19169,	-1.24227,	-1.25213,	-1.46543,	-1.85743,	-2.09732,	-2.31227,	-2.36888,	-2.31025,	-2.21437,	-2.25545,	-2.27984,	-2.34377,	-2.46779,	-2.61014,	-2.71281,	-2.69632,	-2.67277,	-2.62319,	-2.54439,	-2.41170,	-2.48532,	-2.68324,	-2.74577,	-2.71007,	-2.69496,	-2.83520,	-2.90175,	-2.99708,	-3.16385,	-3.28920,	-3.26917,	-3.22733,	-3.13634,	-2.92893,	-2.79685,	-2.72802,	-2.49880,	-2.35642,	-2.18062,	-1.96836,	-1.78954,	-1.81014,	-1.87412,	-1.80284,	-1.75541,	-1.88764,	-1.98106,	-1.91462,	-1.83517,	-1.78588,	-1.76160,	-1.60454,	-1.43983,	-1.37125,	-1.23218,	-1.06914,	-0.92319,	-0.97672,	-1.02220,	-1.00557,	-0.95944,	-0.94550,	-1.02190,	-1.25917,	-1.46352,	-1.37601,	-1.25691,	-1.24919,	-1.17914,	-1.16300,	-1.23747,	-1.40651,	-1.58826,	-1.80107,	-2.04875,	-2.16240,	-2.22556,	-2.38259,	-2.43866,	-2.38319,	-2.43275,	-2.54609,	-2.64205,	-2.61914,	-2.55076,	-2.58044,	-2.46833,	-2.32833,	-2.23507,	-2.24618,	-2.15288,	-2.01821,	-1.99932,	-2.04903,	-2.07205,	-2.06924,	-2.05525,	-1.91932,	-1.82976,	-1.89086,	-1.89829,	-1.93556,	-2.08383,	-2.12288,	-2.16906,	-2.24831,	-2.29857,	-2.15000,	0.00000,	0.00000,	0.00000,	0.00000,	0.00000,	0.00000,	0.00000,	-1.31041,	-1.17424,	-1.25714,	-1.26545,	-1.09142,	-0.74805,	-0.47336,	-0.28048
1.05008,	1.16047,	1.28259,	1.38745,	1.37312,	1.31922,	1.27121,	1.24336,	1.12925,	1.07697,	1.18517,	1.15078,	1.10913,	1.01473,	0.90914,	0.75712,	0.69413,	0.64814,	0.65807,	0.69822,	0.78913,	0.80181,	0.77700,	0.71895,	0.68030,	0.53037,	0.42548,	0.41646,	0.24784,	0.02918,	-0.21609,	-0.44206,	-0.68166,	-0.94117,	-1.08977,	-1.23434,	-1.50347,	-1.84864,	-2.04896,	-2.04734,	-2.09335,	-2.17867,	-2.13887,	-2.19975,	-2.25242,	-2.21616,	-2.13121,	-2.03069,	-1.91449,	-1.77690,	-1.56255,	-1.32390,	-1.03758,	-0.83380,	-0.68824,	-0.44470,	-0.16769,	0.01026,	0.09575,	0.14938,	0.00413,	-0.12641,	-0.10508,	0.07784,	0.25977,	0.32788,	0.37995,	0.43957,	0.41928,	0.35357,	0.28681,	0.21334,	-0.04162,	-0.36402,	-0.56162,	-0.85818,	-1.13005,	-1.29579,	-1.38138,	-1.25858,	-1.12910,	-0.99192,	-0.91884,	-1.00548,	-1.11783,	-1.26154,	-1.41454,	-1.39170,	-1.32881,	-1.33678,	-1.45141,	-1.47340,	-1.58025,	-1.66252,	-1.57092,	-1.42273,	-1.40038,	-1.58510,	-1.71967,	-1.72315,	-1.73100,	-1.77537,	-1.83955,	-1.85417,	-1.94690,	-2.05941,	-1.91602,	-1.77721,	-1.70295,	-1.54889,	-1.41273,	-1.20363,	-1.05622,	-0.96064,	-0.92957,	-0.91018,	-0.87388,	-0.78744,	-0.86061,	-0.94686,	-1.09328,	-1.22202,	-1.33094,	-1.21316,	-1.15080,	-1.17544,	-1.09691,	-0.91186,	-0.72662,	-0.68146,	-0.68251,	-0.67973,	-0.73286,	-0.78750,	-0.80564,	-0.75922,	-0.67702,	-0.66201,	-0.42076,	-0.09937,	0.06895,	0.34656,	0.53796,	0.66489,	0.68182,	0.62712,	0.52620,	0.45408,	0.30010,	0.15564,	-0.12889,	-0.29534,	-0.38235,	-0.38890,	-0.44820,	-0.43310,	-0.55259,	-0.77853,	-0.79659,	-0.66607,	-0.53283,	-0.47903,	-0.50575,	-0.51257,	-0.57903,	-0.62190,	-0.57399,	-0.49724,	-0.50185,	-0.68752,	-0.76331,	-0.78615,	-0.93629,	-1.05606,	-1.20185,	-1.23763,	-1.22680,	-1.12318,	-1.06584,	-1.05096,	-1.15400,	-1.14175,	-1.18339,	-1.15621,	-1.19496,	-1.34661,	-1.67612,	-1.84690,	-1.98445,	-2.16005,	-2.18316,	-2.08571,	-2.01090,	-2.01487,	-2.16097,	-2.33181,	-2.48790,	-2.67475,	-2.72164,	-2.60689,	-2.51938,	-2.54817,	-2.52795,	-2.54267,	-2.71010,	-2.80519,	-2.81660,	-2.71479,	-2.68910,	-2.74370,	-2.90745,	-3.00710,	-3.10270,	-3.02782,	-2.93684,	-2.79670,	-2.65290,	-2.53036,	-2.45189,	-2.23308,	-2.00917,	-1.94082,	-1.87851,	-1.76413,	-1.70089,	-1.66920,	-1.69216,	-1.67688,	-1.70987,	-1.80027,	-1.83956,	-1.76415,	-1.64668,	-1.65871,	-1.60087,	-1.41089,	-1.29699,	-1.09040,	-0.91901,	-0.78759,	-0.76716,	-0.74209,	-0.71664,	-0.62639,	-0.66755,	-0.77090,	-0.97742,	-1.12594,	-1.09781,	-1.01642,	-1.00874,	-0.98076,	-0.92397,	-1.00488,	-1.16243,	-1.34936,	-1.52126,	-1.74689,	-1.95303,	-2.03847,	-2.13392,	-2.19235,	-2.25016,	-2.31468,	-2.36727,	-2.55324,	-2.64416,	-2.49068,	-2.43062,	-2.34725,	-2.29935,	-2.20934,	-2.13856,	-2.04086,	-1.97772,	-1.94100,	-2.02431,	-2.07836,	-2.04741,	-1.99482,	-1.85593,	-1.80592,	-1.89492,	-2.00836,	-2.05223,	-2.17981,	-2.27365,	-2.31513,	-2.28757,	-2.26728,	-2.27347,	0.00000,	0.00000,	0.00000,	0.00000,	0.00000,	0.00000,	0.00000,	0.00000,	-1.22818,	-1.27128,	-1.23008,	-1.03568,	-0.72721,	-0.44643,	-0.26635
1.05470,	1.16630,	1.34705,	1.53927,	1.56396,	1.46690,	1.27349,	1.25103,	1.28518,	1.24130,	1.21954,	1.09380,	1.04205,	0.91720,	0.83569,	0.78373,	0.74726,	0.63249,	0.65239,	0.71523,	0.81445,	0.84268,	0.82965,	0.75564,	0.66100,	0.47401,	0.35809,	0.37903,	0.31097,	0.14081,	-0.22232,	-0.48526,	-0.66455,	-1.01060,	-1.22757,	-1.32048,	-1.51437,	-1.81941,	-2.09730,	-2.11537,	-2.00866,	-2.03196,	-2.08249,	-2.18637,	-2.20263,	-2.11279,	-2.02112,	-1.90166,	-1.75016,	-1.65163,	-1.44411,	-1.22984,	-1.02191,	-0.85317,	-0.70815,	-0.49288,	-0.30181,	-0.14525,	-0.01834,	0.08487,	0.04373,	0.00974,	-0.01072,	0.12675,	0.33478,	0.35220,	0.39090,	0.56610,	0.65157,	0.60874,	0.42796,	0.24454,	0.05019,	-0.22851,	-0.42968,	-0.70992,	-0.97193,	-1.18399,	-1.36402,	-1.25969,	-1.09468,	-0.96441,	-0.88557,	-0.92922,	-1.03534,	-1.14791,	-1.20846,	-1.08145,	-1.01163,	-1.07194,	-1.24794,	-1.31302,	-1.39712,	-1.48672,	-1.54077,	-1.49486,	-1.39889,	-1.53748,	-1.64032,	-1.53791,	-1.45040,	-1.47349,	-1.64243,	-1.76236,	-1.77619,	-1.76003,	-1.65467,	-1.60837,	-1.54368,	-1.41857,	-1.36276,	-1.19239,	-1.02375,	-0.90384,	-0.83576,	-0.77241,	-0.78902,	-0.70724,	-0.74589,	-0.80971,	-1.01474,	-1.22377,	-1.35738,	-1.27449,	-1.21828,	-1.18217,	-1.13114,	-0.97868,	-0.68691,	-0.62054,	-0.67484,	-0.65120,	-0.66873,	-0.66862,	-0.63048,	-0.59947,	-0.47549,	-0.42105,	-0.28819,	-0.08770,	0.05760,	0.30140,	0.37797,	0.43694,	0.47304,	0.43895,	0.38709,	0.43999,	0.31750,	0.18878,	-0.08283,	-0.21074,	-0.34922,	-0.50856,	-0.64438,	-0.63964,	-0.69466,	-0.76343,	-0.75235,	-0.69625,	-0.49360,	-0.44431,	-0.56962,	-0.57297,	-0.59394,	-0.53292,	-0.47597,	-0.49350,	-0.43321,	-0.49452,	-0.59962,	-0.73460,	-0.90773,	-1.00399,	-1.18414,	-1.28306,	-1.29659,	-1.19324,	-1.15100,	-1.08374,	-1.20589,	-1.19063,	-1.18226,	-1.08757,	-1.13547,	-1.33317,	-1.63219,	-1.75833,	-1.84838,	-1.94335,	-2.01647,	-2.07992,	-1.99828,	-1.94509,	-2.02570,	-2.09338,	-2.23105,	-2.43831,	-2.58451,	-2.65208,	-2.59519,	-2.55609,	-2.59671,	-2.71773,	-2.88752,	-2.93685,	-2.91422,	-2.76317,	-2.62932,	-2.58413,	-2.70255,	-2.66283,	-2.70983,	-2.66190,	-2.57172,	-2.38495,	-2.25382,	-2.20488,	-2.16239,	-1.98230,	-1.77637,	-1.69366,	-1.69848,	-1.73753,	-1.65382,	-1.50213,	-1.52821,	-1.48361,	-1.45045,	-1.48217,	-1.53707,	-1.61442,	-1.53606,	-1.44586,	-1.39637,	-1.34538,	-1.30461,	-1.06918,	-0.88608,	-0.75768,	-0.67698,	-0.56726,	-0.51440,	-0.36086,	-0.41452,	-0.55429,	-0.75100,	-0.84600,	-0.84005,	-0.87326,	-0.95071,	-0.98331,	-0.92394,	-0.86477,	-0.83898,	-1.02732,	-1.22767,	-1.45288,	-1.75176,	-1.86233,	-1.91744,	-1.95665,	-2.07352,	-2.29429,	-2.40703,	-2.49787,	-2.53322,	-2.43208,	-2.39664,	-2.29241,	-2.25741,	-2.17793,	-2.09629,	-2.01388,	-1.98508,	-1.87783,	-1.89737,	-1.93761,	-1.90354,	-1.83767,	-1.72378,	-1.80487,	-1.99661,	-2.16709,	-2.19149,	-2.17958,	-2.18689,	-2.29807,	-2.31384,	-2.25745,	-2.31604,	-2.27912,	0.00000,	0.00000,	0.00000,	0.00000,	0.00000,	0.00000,	0.00000,	-1.21600,	-1.30162,	-1.22070,	-1.02039,	-0.79329,	-0.57466,	-0.40716
0.98607,	1.22061,	1.46703,	1.69660,	1.64350,	1.48371,	1.31607,	1.28249,	1.28264,	1.28653,	1.20853,	1.02312,	0.97855,	0.84086,	0.80609,	0.76216,	0.67538,	0.58632,	0.59443,	0.65160,	0.70295,	0.79463,	0.85614,	0.76619,	0.59987,	0.46437,	0.38980,	0.33594,	0.25429,	0.09135,	-0.21709,	-0.54704,	-0.79071,	-1.06500,	-1.25945,	-1.31531,	-1.52938,	-1.86656,	-2.08700,	-2.07208,	-1.98047,	-1.96825,	-2.03693,	-2.17988,	-2.13251,	-1.97627,	-1.83456,	-1.74567,	-1.66598,	-1.53841,	-1.30700,	-1.07452,	-0.93632,	-0.77093,	-0.59252,	-0.45855,	-0.38325,	-0.23396,	-0.03978,	0.02920,	0.05270,	0.06147,	0.08614,	0.13559,	0.21659,	0.31083,	0.40338,	0.61773,	0.70689,	0.61972,	0.49887,	0.37992,	0.18638,	-0.05542,	-0.22440,	-0.52517,	-0.74760,	-0.95281,	-1.18566,	-1.19159,	-1.13290,	-0.98012,	-0.84187,	-0.80719,	-0.89562,	-0.94210,	-0.85144,	-0.71886,	-0.70047,	-0.79020,	-0.92319,	-1.11991,	-1.25103,	-1.39315,	-1.49117,	-1.53118,	-1.54141,	-1.56171,	-1.56209,	-1.38682,	-1.28440,	-1.40444,	-1.53892,	-1.57674,	-1.54259,	-1.44588,	-1.32146,	-1.39427,	-1.34639,	-1.22476,	-1.18640,	-1.06298,	-0.98881,	-0.85833,	-0.73446,	-0.63381,	-0.68159,	-0.63078,	-0.57486,	-0.64178,	-0.85551,	-1.11169,	-1.18881,	-1.24215,	-1.24443,	-1.20937,	-1.14814,	-1.03278,	-0.85098,	-0.70874,	-0.68128,	-0.59746,	-0.58090,	-0.65154,	-0.53244,	-0.36617,	-0.22018,	-0.17764,	-0.11338,	-0.11531,	-0.02293,	0.20156,	0.24632,	0.27556,	0.23142,	0.22292,	0.27473,	0.40122,	0.31348,	0.18806,	0.04129,	-0.10184,	-0.30070,	-0.59054,	-0.69331,	-0.77743,	-0.83972,	-0.84870,	-0.78822,	-0.71314,	-0.63157,	-0.58300,	-0.65504,	-0.61391,	-0.56198,	-0.52761,	-0.43842,	-0.37300,	-0.27404,	-0.29747,	-0.34713,	-0.58015,	-0.77020,	-0.83863,	-1.01446,	-1.13461,	-1.26880,	-1.23481,	-1.16711,	-1.05524,	-1.12862,	-1.15794,	-1.06574,	-0.98679,	-1.06714,	-1.32377,	-1.52924,	-1.72375,	-1.86397,	-1.95242,	-2.02664,	-2.07489,	-2.10529,	-2.04578,	-1.98708,	-1.94200,	-2.01909,	-2.32220,	-2.57109,	-2.66316,	-2.62106,	-2.59676,	-2.58784,	-2.77594,	-2.95421,	-2.93713,	-2.86123,	-2.66114,	-2.53920,	-2.45055,	-2.42212,	-2.26727,	-2.21772,	-2.20502,	-2.04714,	-1.86239,	-1.79645,	-1.87344,	-1.80949,	-1.71393,	-1.65007,	-1.65130,	-1.70608,	-1.72429,	-1.69561,	-1.51562,	-1.43185,	-1.32579,	-1.21411,	-1.25490,	-1.30571,	-1.31363,	-1.20944,	-1.13255,	-1.05097,	-1.11191,	-1.18560,	-0.97547,	-0.80526,	-0.63166,	-0.55372,	-0.46810,	-0.35447,	-0.17774,	-0.18951,	-0.36103,	-0.50653,	-0.59243,	-0.65662,	-0.80308,	-0.84521,	-0.88142,	-0.89676,	-0.81203,	-0.70049,	-0.77164,	-1.03737,	-1.35689,	-1.66589,	-1.80195,	-1.82273,	-1.89728,	-2.06491,	-2.24885,	-2.34271,	-2.43105,	-2.40380,	-2.36100,	-2.40780,	-2.27295,	-2.20593,	-2.08555,	-2.03348,	-2.02784,	-1.96248,	-1.80146,	-1.74101,	-1.79427,	-1.74221,	-1.66566,	-1.67633,	-1.90983,	-2.11408,	-2.25651,	-2.31988,	-2.25101,	-2.22514,	-2.28349,	-2.35865,	-2.37917,	-2.35568,	-2.26954,	0.00000,	0.00000,	0.00000,	0.00000,	0.00000,	0.00000,	0.00000,	0.00000,	-1.23528,	-1.13554,	-0.95084,	-0.77406,	-0.64672,	-0.58422
1.04785,	1.34474,	1.50684,	1.65752,	1.60235,	1.43429,	1.21522,	1.14384,	1.08861,	1.10078,	1.18116,	1.10392,	1.02279,	0.81999,	0.76235,	0.69467,	0.60564,	0.54015,	0.43460,	0.41146,	0.42444,	0.51212,	0.58537,	0.53637,	0.46849,	0.45861,	0.46309,	0.40461,	0.27023,	0.04309,	-0.23747,	-0.55300,	-0.78658,	-0.94418,	-1.19502,	-1.35513,	-1.52659,	-1.79086,	-2.01112,	-2.04211,	-2.01908,	-2.02397,	-1.96425,	-2.01437,	-1.96238,	-1.80152,	-1.65829,	-1.61314,	-1.56962,	-1.41861,	-1.28405,	-1.14004,	-1.01882,	-0.82831,	-0.63903,	-0.53378,	-0.43114,	-0.23215,	-0.01250,	0.05064,	0.08106,	0.10838,	0.20515,	0.22256,	0.17596,	0.27072,	0.31667,	0.45479,	0.62673,	0.62759,	0.55765,	0.50728,	0.33184,	0.07591,	0.00957,	-0.16967,	-0.39854,	-0.63258,	-0.87809,	-0.97900,	-1.02389,	-0.90922,	-0.84178,	-0.83146,	-0.85444,	-0.81168,	-0.64179,	-0.52395,	-0.48936,	-0.54393,	-0.68054,	-0.89259,	-1.03439,	-1.17816,	-1.28059,	-1.37686,	-1.47597,	-1.43695,	-1.41893,	-1.34875,	-1.21496,	-1.27273,	-1.39481,	-1.43054,	-1.35580,	-1.24311,	-1.05678,	-1.06410,	-1.08166,	-1.03406,	-1.02908,	-0.96999,	-0.95704,	-0.79786,	-0.69952,	-0.67399,	-0.69824,	-0.65030,	-0.57263,	-0.66869,	-0.81617,	-0.92628,	-0.92780,	-1.01669,	-1.11504,	-1.14629,	-1.07672,	-0.94125,	-0.82313,	-0.67662,	-0.60957,	-0.57825,	-0.51628,	-0.52660,	-0.40710,	-0.25070,	-0.10692,	-0.10841,	-0.03060,	-0.00651,	-0.01961,	0.06181,	0.06872,	0.11121,	0.05666,	0.11500,	0.18595,	0.20001,	0.12375,	-0.00456,	-0.11224,	-0.26385,	-0.41381,	-0.56745,	-0.63535,	-0.74895,	-0.83748,	-0.83863,	-0.72833,	-0.60510,	-0.58839,	-0.56173,	-0.62437,	-0.70063,	-0.59122,	-0.43522,	-0.33736,	-0.32015,	-0.23106,	-0.27705,	-0.27334,	-0.37799,	-0.55706,	-0.65073,	-0.80561,	-0.89616,	-1.06632,	-1.06227,	-1.04482,	-1.10272,	-1.16126,	-1.15887,	-1.02678,	-1.03236,	-1.18125,	-1.35767,	-1.49040,	-1.65412,	-1.80823,	-1.94480,	-1.98184,	-1.92482,	-2.00134,	-1.99698,	-1.92498,	-1.98069,	-2.04994,	-2.25012,	-2.49301,	-2.67747,	-2.69144,	-2.74966,	-2.68731,	-2.67012,	-2.77868,	-2.76688,	-2.68201,	-2.47545,	-2.36977,	-2.25640,	-2.15961,	-2.05531,	-1.90425,	-1.78558,	-1.59505,	-1.49651,	-1.50424,	-1.53377,	-1.44454,	-1.38931,	-1.42545,	-1.54257,	-1.64992,	-1.61566,	-1.57410,	-1.39901,	-1.29783,	-1.31834,	-1.22522,	-1.13501,	-1.11262,	-1.12984,	-1.01245,	-0.95128,	-0.84008,	-0.75527,	-0.82881,	-0.74819,	-0.67745,	-0.54478,	-0.46973,	-0.33997,	-0.18252,	-0.17257,	-0.24958,	-0.38447,	-0.46743,	-0.54624,	-0.63799,	-0.73189,	-0.64927,	-0.59609,	-0.63433,	-0.62648,	-0.54589,	-0.54549,	-0.82539,	-1.20016,	-1.53471,	-1.84704,	-1.98135,	-2.01987,	-2.12465,	-2.29434,	-2.38746,	-2.49170,	-2.46157,	-2.32187,	-2.34883,	-2.30236,	-2.26912,	-2.10755,	-1.99144,	-1.91629,	-1.82801,	-1.80078,	-1.77986,	-1.78027,	-1.71031,	-1.68754,	-1.80941,	-2.05235,	-2.19441,	-2.28177,	-2.29870,	-2.22933,	-2.23108,	-2.25020,	-2.32907,	-2.39401,	-2.35066,	-2.33502,	-2.12729,	0.00000,	0.00000,	0.00000,	0.00000,	0.00000,	0.00000,	0.00000,	0.00000,	-0.95073,	-0.82098,	-0.73558,	-0.71227,	-0.69271
0.99449,	1.25947,	1.46640,	1.60773,	1.53213,	1.37373,	1.14034,	0.97423,	0.97217,	1.05786,	1.17536,	1.12950,	0.93469,	0.73829,	0.58157,	0.45052,	0.36332,	0.34279,	0.26501,	0.29097,	0.35895,	0.31480,	0.32085,	0.39523,	0.43725,	0.44201,	0.41489,	0.35578,	0.20756,	-0.01790,	-0.36421,	-0.66562,	-0.75155,	-0.83432,	-1.05067,	-1.26914,	-1.50232,	-1.72365,	-1.92671,	-2.09553,	-2.08489,	-1.96476,	-1.85221,	-1.88193,	-1.89991,	-1.71092,	-1.61371,	-1.64568,	-1.59641,	-1.39904,	-1.29682,	-1.19639,	-1.01243,	-0.89223,	-0.76484,	-0.59838,	-0.46088,	-0.33289,	-0.20455,	-0.17833,	-0.16993,	-0.05495,	0.07967,	0.09440,	0.11692,	0.18900,	0.25863,	0.45752,	0.65135,	0.72533,	0.72174,	0.64580,	0.47827,	0.33622,	0.27031,	0.10423,	-0.18345,	-0.37563,	-0.51842,	-0.67642,	-0.78862,	-0.76250,	-0.74543,	-0.71482,	-0.58588,	-0.56217,	-0.49113,	-0.36323,	-0.30957,	-0.42553,	-0.65403,	-0.83730,	-0.94834,	-0.99501,	-1.12558,	-1.35749,	-1.43535,	-1.37932,	-1.34203,	-1.25492,	-1.14855,	-1.11106,	-1.17258,	-1.26432,	-1.20652,	-0.97648,	-0.81155,	-0.84523,	-0.94417,	-0.91530,	-0.89270,	-0.97729,	-1.00925,	-0.86769,	-0.76454,	-0.75510,	-0.66055,	-0.65325,	-0.68072,	-0.77488,	-0.85825,	-0.87505,	-0.85280,	-0.87896,	-0.99005,	-1.00037,	-0.90954,	-0.83062,	-0.65586,	-0.51405,	-0.45445,	-0.35912,	-0.35379,	-0.36209,	-0.27731,	-0.21393,	-0.15056,	-0.01938,	0.13871,	0.16436,	0.01300,	-0.06066,	-0.02029,	-0.01867,	-0.02058,	0.04710,	0.09494,	0.00931,	0.00335,	-0.14888,	-0.35482,	-0.45850,	-0.50183,	-0.54755,	-0.68519,	-0.84543,	-0.96903,	-0.92187,	-0.74645,	-0.69641,	-0.60961,	-0.49563,	-0.56133,	-0.57934,	-0.48279,	-0.29375,	-0.20240,	-0.25850,	-0.25661,	-0.17044,	-0.12780,	-0.23191,	-0.45555,	-0.60380,	-0.64834,	-0.76236,	-0.89560,	-0.93086,	-0.94957,	-1.16338,	-1.17847,	-1.10829,	-1.04818,	-1.07497,	-1.22712,	-1.37965,	-1.54445,	-1.66642,	-1.79567,	-1.92535,	-1.89377,	-1.88905,	-1.96604,	-1.96680,	-1.99757,	-2.03473,	-2.13106,	-2.24432,	-2.34844,	-2.52545,	-2.67184,	-2.68554,	-2.53498,	-2.40315,	-2.46277,	-2.53234,	-2.42288,	-2.31900,	-2.21993,	-2.13138,	-1.98713,	-1.89551,	-1.59908,	-1.31673,	-1.24122,	-1.26613,	-1.31150,	-1.32535,	-1.31919,	-1.33835,	-1.39371,	-1.50310,	-1.56436,	-1.58681,	-1.51877,	-1.29689,	-1.27471,	-1.28509,	-1.19289,	-1.03516,	-0.94503,	-0.96858,	-0.95303,	-0.81040,	-0.60016,	-0.44823,	-0.53862,	-0.63942,	-0.61093,	-0.63036,	-0.58703,	-0.41567,	-0.18497,	-0.22486,	-0.28101,	-0.28545,	-0.38506,	-0.45586,	-0.47734,	-0.51928,	-0.43487,	-0.38647,	-0.44673,	-0.51841,	-0.46919,	-0.55356,	-0.86187,	-1.13553,	-1.45129,	-1.76958,	-1.99197,	-2.09971,	-2.14308,	-2.25070,	-2.42157,	-2.51958,	-2.46024,	-2.33280,	-2.38732,	-2.49374,	-2.42859,	-2.24826,	-2.06502,	-1.89947,	-1.81714,	-1.90174,	-1.90649,	-1.77250,	-1.77174,	-1.86370,	-1.95832,	-2.14091,	-2.30015,	-2.40554,	-2.37346,	-2.31526,	-2.28545,	-2.33390,	-2.41914,	-2.38324,	-2.36899,	-2.36682,	-2.15689,	0.00000,	0.00000,	0.00000,	0.00000,	0.00000,	0.00000,	0.00000,	0.00000,	-0.98280,	-0.80144,	-0.71988,	-0.78210,	-0.75758
0.85764,	1.05160,	1.24861,	1.41304,	1.34533,	1.18913,	1.09228,	0.95457,	0.87080,	0.92773,	0.97917,	0.85166,	0.63393,	0.47668,	0.34159,	0.23049,	0.08868,	0.06427,	0.13608,	0.28200,	0.34539,	0.22942,	0.25897,	0.42925,	0.51438,	0.51235,	0.43657,	0.36183,	0.18323,	-0.04485,	-0.34065,	-0.58057,	-0.64564,	-0.77415,	-1.01989,	-1.26422,	-1.55041,	-1.78543,	-1.86452,	-1.99550,	-2.05991,	-1.92659,	-1.82198,	-1.88121,	-1.87973,	-1.64073,	-1.52894,	-1.55609,	-1.53194,	-1.32611,	-1.14238,	-0.99790,	-0.85987,	-0.84047,	-0.72438,	-0.52156,	-0.44083,	-0.41087,	-0.36574,	-0.39564,	-0.44451,	-0.33984,	-0.14401,	-0.01682,	0.08333,	0.12751,	0.21381,	0.44878,	0.63942,	0.71867,	0.81796,	0.80947,	0.57337,	0.42953,	0.38097,	0.22607,	-0.01881,	-0.11447,	-0.14017,	-0.24347,	-0.43018,	-0.51932,	-0.48164,	-0.37751,	-0.22756,	-0.28758,	-0.28145,	-0.11812,	-0.06126,	-0.19824,	-0.44456,	-0.62674,	-0.76551,	-0.88200,	-1.04657,	-1.27802,	-1.35688,	-1.34695,	-1.30424,	-1.20874,	-1.10541,	-1.02869,	-0.98010,	-0.94874,	-0.95217,	-0.78596,	-0.65715,	-0.74053,	-0.81339,	-0.69238,	-0.64295,	-0.76945,	-0.90901,	-0.90283,	-0.78384,	-0.71331,	-0.62303,	-0.69866,	-0.74515,	-0.76123,	-0.80100,	-0.77857,	-0.71581,	-0.65393,	-0.70671,	-0.74652,	-0.63872,	-0.53679,	-0.36838,	-0.31411,	-0.31983,	-0.28034,	-0.34714,	-0.40300,	-0.28303,	-0.08729,	-0.08950,	-0.02032,	0.17917,	0.18468,	-0.00557,	-0.06613,	0.00216,	0.03194,	0.02507,	-0.01910,	-0.00393,	-0.04310,	-0.02534,	-0.21838,	-0.42514,	-0.42526,	-0.42212,	-0.49046,	-0.69328,	-0.88974,	-1.03308,	-1.02609,	-0.81579,	-0.71884,	-0.55856,	-0.41836,	-0.46938,	-0.45913,	-0.37308,	-0.22002,	-0.11133,	-0.02055,	-0.02980,	0.01362,	0.04998,	-0.12093,	-0.39219,	-0.50325,	-0.48474,	-0.56589,	-0.70859,	-0.85104,	-0.87870,	-1.05289,	-1.05877,	-1.03758,	-1.01503,	-0.94557,	-1.05274,	-1.23288,	-1.42713,	-1.55137,	-1.67486,	-1.86465,	-1.86247,	-1.89311,	-1.98950,	-2.05424,	-2.13237,	-2.15662,	-2.26610,	-2.36542,	-2.34049,	-2.27395,	-2.40429,	-2.48113,	-2.30237,	-2.16142,	-2.19858,	-2.24692,	-2.14848,	-2.05655,	-1.95702,	-1.94165,	-1.76719,	-1.56631,	-1.21548,	-0.98692,	-1.01215,	-1.03454,	-1.08255,	-1.13255,	-1.18908,	-1.27002,	-1.31676,	-1.43935,	-1.48704,	-1.47900,	-1.38598,	-1.20895,	-1.24624,	-1.24832,	-1.12831,	-0.96055,	-0.85014,	-0.73299,	-0.73453,	-0.68332,	-0.47837,	-0.36854,	-0.51575,	-0.64115,	-0.62147,	-0.68488,	-0.66720,	-0.57170,	-0.31994,	-0.20614,	-0.15196,	-0.13340,	-0.23495,	-0.22253,	-0.15991,	-0.19579,	-0.17351,	-0.21476,	-0.32475,	-0.48927,	-0.49130,	-0.57897,	-0.88845,	-1.16278,	-1.46328,	-1.76127,	-2.02462,	-2.20319,	-2.25161,	-2.20689,	-2.33622,	-2.55906,	-2.58390,	-2.51096,	-2.58992,	-2.66380,	-2.51704,	-2.28087,	-2.07062,	-1.99047,	-1.98204,	-2.02024,	-1.97544,	-1.82884,	-1.87819,	-1.96000,	-1.95992,	-2.09582,	-2.27229,	-2.40070,	-2.36410,	-2.34144,	-2.32330,	-2.32110,	-2.32685,	-2.25751,	-2.29326,	-2.32087,	-2.15621,	-1.88348,	0.00000,	0.00000,	0.00000,	0.00000,	0.00000,	0.00000,	0.00000,	0.00000,	-0.82831,	-0.63018,	-0.63956,	-0.66253
0.76541,	0.87126,	1.01431,	1.18307,	1.24580,	1.09692,	0.97723,	0.84461,	0.75200,	0.69041,	0.64732,	0.51466,	0.28809,	0.12163,	-0.03047,	-0.05137,	-0.04147,	-0.12111,	-0.00139,	0.18056,	0.21296,	0.10857,	0.17707,	0.33445,	0.40247,	0.43168,	0.35508,	0.32846,	0.22565,	0.00486,	-0.25392,	-0.39000,	-0.48459,	-0.74254,	-1.04660,	-1.28110,	-1.46412,	-1.67447,	-1.78827,	-1.91484,	-1.95794,	-1.88653,	-1.83832,	-1.82424,	-1.79086,	-1.58606,	-1.53311,	-1.53143,	-1.34428,	-1.14495,	-0.95933,	-0.79769,	-0.73545,	-0.74456,	-0.62649,	-0.50253,	-0.57490,	-0.61851,	-0.61811,	-0.61126,	-0.58072,	-0.50211,	-0.34479,	-0.09675,	0.08063,	0.08209,	0.18092,	0.41676,	0.66837,	0.78305,	0.82587,	0.79703,	0.59344,	0.43113,	0.38038,	0.39453,	0.25397,	0.18432,	0.14833,	0.05486,	-0.04381,	-0.19664,	-0.23260,	-0.11250,	-0.02747,	-0.10728,	-0.11359,	0.02023,	0.02112,	-0.06558,	-0.24969,	-0.37810,	-0.48441,	-0.71805,	-1.00642,	-1.17881,	-1.20733,	-1.25803,	-1.21057,	-1.11828,	-0.94324,	-0.76673,	-0.72801,	-0.67342,	-0.67058,	-0.59394,	-0.57676,	-0.58561,	-0.56045,	-0.40519,	-0.40590,	-0.59001,	-0.69113,	-0.74117,	-0.72067,	-0.65068,	-0.67762,	-0.78049,	-0.78109,	-0.72645,	-0.75528,	-0.69208,	-0.58732,	-0.41174,	-0.31037,	-0.32249,	-0.28226,	-0.18765,	-0.04444,	-0.13358,	-0.22622,	-0.28656,	-0.36310,	-0.35649,	-0.25266,	-0.00438,	0.01911,	0.04033,	0.13563,	0.18073,	0.03411,	-0.03413,	-0.01274,	-0.02630,	0.04175,	0.00862,	-0.09166,	-0.10164,	-0.13710,	-0.29021,	-0.40685,	-0.34840,	-0.40791,	-0.56092,	-0.80323,	-0.96029,	-1.00876,	-0.95951,	-0.79718,	-0.66758,	-0.41193,	-0.29076,	-0.31469,	-0.29436,	-0.19172,	0.02403,	0.08834,	0.19558,	0.24253,	0.28918,	0.21097,	0.04493,	-0.18276,	-0.28834,	-0.29360,	-0.44929,	-0.57189,	-0.66560,	-0.77470,	-0.87910,	-0.92064,	-0.94950,	-0.94320,	-0.82055,	-0.94948,	-1.16580,	-1.36594,	-1.49100,	-1.56890,	-1.73600,	-1.85667,	-1.97908,	-2.05837,	-2.20483,	-2.27659,	-2.26183,	-2.34004,	-2.31705,	-2.25863,	-2.12905,	-2.18479,	-2.22144,	-2.12298,	-1.96817,	-1.91249,	-1.93987,	-1.89590,	-1.89080,	-1.75284,	-1.60013,	-1.45591,	-1.20073,	-0.91968,	-0.82394,	-0.89657,	-0.87817,	-0.95814,	-1.05472,	-1.13887,	-1.24725,	-1.22648,	-1.25481,	-1.33289,	-1.34121,	-1.20035,	-1.10530,	-1.18676,	-1.17344,	-1.00047,	-0.71340,	-0.62080,	-0.52887,	-0.53095,	-0.48304,	-0.39242,	-0.37048,	-0.50797,	-0.63473,	-0.64953,	-0.77826,	-0.74355,	-0.56453,	-0.38652,	-0.17997,	-0.05632,	-0.03983,	-0.09652,	-0.01998,	0.02808,	-0.04788,	-0.07862,	-0.20210,	-0.30150,	-0.42830,	-0.47696,	-0.59944,	-0.86773,	-1.18893,	-1.53551,	-1.83778,	-2.11237,	-2.22537,	-2.29077,	-2.27908,	-2.39426,	-2.61962,	-2.77433,	-2.78502,	-2.77623,	-2.74163,	-2.54311,	-2.34833,	-2.16565,	-2.06104,	-2.15335,	-2.16819,	-2.07594,	-1.95840,	-1.99662,	-2.03250,	-2.01103,	-2.14476,	-2.29866,	-2.42807,	-2.35331,	-2.26269,	-2.25776,	-2.25608,	-2.14072,	-2.05844,	-2.17150,	-2.22502,	-2.10147,	-1.79715,	-1.51754,	0.00000,	0.00000,	0.00000,	0.00000,	0.00000,	0.00000,	0.00000,	0.00000,	-0.60436,	-0.55055,	-0.45584
0.82129,	0.90291,	0.96902,	1.06286,	1.04892,	0.87403,	0.77992,	0.65696,	0.61075,	0.50728,	0.40271,	0.27778,	-0.00058,	-0.20399,	-0.32800,	-0.26363,	-0.22227,	-0.33047,	-0.22090,	-0.08288,	-0.00938,	-0.07672,	-0.03263,	0.08458,	0.19010,	0.31203,	0.24721,	0.19608,	0.06171,	-0.14642,	-0.31414,	-0.38074,	-0.40830,	-0.68372,	-0.96577,	-1.10230,	-1.23994,	-1.46375,	-1.62016,	-1.78057,	-1.78098,	-1.67839,	-1.62465,	-1.56176,	-1.59682,	-1.52701,	-1.48834,	-1.41169,	-1.17582,	-1.03920,	-0.90921,	-0.77506,	-0.64343,	-0.57698,	-0.50225,	-0.50916,	-0.68755,	-0.73763,	-0.77844,	-0.74233,	-0.65496,	-0.61910,	-0.51507,	-0.27055,	0.02287,	0.13851,	0.27907,	0.52125,	0.68319,	0.69519,	0.70804,	0.70607,	0.62158,	0.55849,	0.53242,	0.66659,	0.57509,	0.48455,	0.44603,	0.33853,	0.20979,	-0.05480,	-0.16926,	-0.09182,	-0.00110,	0.00730,	0.00565,	0.05676,	0.00500,	0.02718,	-0.06518,	-0.19932,	-0.35221,	-0.72759,	-1.05413,	-1.14501,	-1.00421,	-0.91140,	-0.87569,	-0.78789,	-0.65222,	-0.51341,	-0.43315,	-0.34893,	-0.34889,	-0.30407,	-0.36398,	-0.31558,	-0.24824,	-0.17007,	-0.22027,	-0.40528,	-0.47829,	-0.60386,	-0.66435,	-0.67661,	-0.76000,	-0.77740,	-0.72056,	-0.58554,	-0.54643,	-0.40963,	-0.32118,	-0.18063,	-0.00562,	-0.00287,	0.02106,	0.05352,	0.13641,	0.05800,	-0.10121,	-0.17969,	-0.27903,	-0.36574,	-0.26984,	0.04163,	0.14317,	0.26781,	0.28682,	0.29051,	0.12193,	-0.04871,	-0.06908,	-0.08056,	-0.00196,	-0.08043,	-0.22131,	-0.29323,	-0.38588,	-0.40632,	-0.41546,	-0.36230,	-0.49351,	-0.66863,	-0.89081,	-1.01335,	-0.95048,	-0.89188,	-0.78476,	-0.67959,	-0.36950,	-0.06494,	0.00390,	0.08238,	0.14359,	0.20029,	0.22332,	0.37619,	0.49245,	0.63255,	0.48856,	0.33490,	0.17733,	0.02598,	-0.01673,	-0.22225,	-0.37798,	-0.53142,	-0.65696,	-0.69496,	-0.72768,	-0.73249,	-0.79592,	-0.75151,	-0.90450,	-1.05688,	-1.22303,	-1.41487,	-1.52931,	-1.75081,	-1.95304,	-2.13533,	-2.20574,	-2.26085,	-2.29644,	-2.20613,	-2.23398,	-2.24931,	-2.21806,	-2.07256,	-2.06583,	-1.96416,	-1.88305,	-1.72430,	-1.61703,	-1.66135,	-1.63885,	-1.68643,	-1.58120,	-1.43053,	-1.26805,	-1.03766,	-0.86802,	-0.81088,	-0.86124,	-0.79128,	-0.82383,	-0.88021,	-1.00679,	-1.22112,	-1.21530,	-1.20056,	-1.25282,	-1.26700,	-1.15002,	-1.01125,	-1.04736,	-0.95751,	-0.72592,	-0.52532,	-0.52824,	-0.44415,	-0.39748,	-0.23914,	-0.19758,	-0.27624,	-0.43647,	-0.61748,	-0.63617,	-0.69740,	-0.63306,	-0.53818,	-0.47626,	-0.28967,	-0.12625,	0.00472,	0.03323,	0.10236,	0.09166,	0.02528,	-0.00506,	-0.18951,	-0.30991,	-0.47338,	-0.58187,	-0.73602,	-0.98973,	-1.22063,	-1.55668,	-1.88235,	-2.15180,	-2.33836,	-2.48519,	-2.48302,	-2.56772,	-2.65271,	-2.80066,	-2.90236,	-2.88719,	-2.81447,	-2.57534,	-2.38949,	-2.27086,	-2.27773,	-2.42231,	-2.38452,	-2.22661,	-2.06564,	-2.09992,	-2.16492,	-2.16455,	-2.21669,	-2.28115,	-2.43132,	-2.42172,	-2.36234,	-2.35388,	-2.30617,	-2.11825,	-1.95800,	-2.03456,	-2.06584,	-1.89854,	-1.66119,	-1.52110,	-1.46381,	0.00000,	0.00000,	0.00000,	0.00000,	0.00000,	0.00000,	0.00000,	-0.54271,	-0.41912,	-0.30525
0.88394,	0.93817,	0.91472,	0.80510,	0.66476,	0.49774,	0.47185,	0.44665,	0.36983,	0.20543,	0.08171,	0.02128,	-0.13775,	-0.41431,	-0.50757,	-0.44955,	-0.52002,	-0.51678,	-0.32626,	-0.29450,	-0.24475,	-0.24456,	-0.25088,	-0.16642,	0.01469,	0.15693,	0.19110,	0.15102,	-0.11897,	-0.32010,	-0.35903,	-0.42538,	-0.49372,	-0.66870,	-0.80428,	-0.90157,	-1.00461,	-1.20441,	-1.39210,	-1.53292,	-1.61098,	-1.60761,	-1.57256,	-1.50789,	-1.47779,	-1.48480,	-1.38636,	-1.19914,	-1.08023,	-0.95902,	-0.80301,	-0.76824,	-0.63442,	-0.46761,	-0.46172,	-0.58286,	-0.70114,	-0.75245,	-0.77867,	-0.69098,	-0.70124,	-0.68598,	-0.50444,	-0.31761,	-0.09300,	0.09960,	0.30154,	0.47973,	0.55048,	0.52983,	0.58270,	0.75207,	0.77507,	0.69928,	0.63697,	0.72915,	0.71221,	0.61585,	0.58019,	0.53780,	0.28296,	0.02950,	0.01405,	0.02026,	0.05321,	0.16923,	0.17912,	0.10340,	0.05629,	0.06128,	-0.00798,	-0.09109,	-0.35109,	-0.72781,	-0.85940,	-0.83011,	-0.65260,	-0.48704,	-0.44718,	-0.44810,	-0.41948,	-0.30910,	-0.18885,	-0.02200,	-0.01594,	-0.06898,	-0.16185,	-0.12758,	-0.02952,	-0.03683,	-0.16931,	-0.25114,	-0.38457,	-0.50452,	-0.47737,	-0.54980,	-0.64391,	-0.52604,	-0.41907,	-0.33506,	-0.24116,	-0.10915,	-0.07018,	0.07079,	0.17472,	0.17071,	0.30489,	0.36110,	0.30303,	0.17793,	0.05034,	-0.02411,	-0.14689,	-0.27181,	-0.22709,	0.11241,	0.27441,	0.37363,	0.35132,	0.26872,	0.10101,	-0.07846,	-0.15247,	-0.03790,	-0.04059,	-0.12837,	-0.12619,	-0.26778,	-0.49251,	-0.49259,	-0.47925,	-0.54708,	-0.65883,	-0.75496,	-0.89287,	-0.86024,	-0.77181,	-0.77667,	-0.64479,	-0.49356,	-0.27072,	0.06552,	0.25202,	0.34031,	0.35183,	0.36420,	0.39555,	0.62244,	0.77419,	0.81557,	0.62619,	0.45658,	0.37457,	0.28404,	0.15036,	0.04977,	-0.12678,	-0.33359,	-0.33250,	-0.34392,	-0.48166,	-0.51452,	-0.63245,	-0.80148,	-0.97221,	-1.05087,	-1.20721,	-1.31248,	-1.47920,	-1.80523,	-1.93364,	-1.98129,	-2.09323,	-2.18917,	-2.23242,	-2.18934,	-2.25498,	-2.27311,	-2.23653,	-2.04658,	-1.94989,	-1.84256,	-1.75033,	-1.60069,	-1.46277,	-1.38400,	-1.39488,	-1.37454,	-1.35625,	-1.36093,	-1.12196,	-0.90418,	-0.87031,	-0.78937,	-0.70658,	-0.65245,	-0.61954,	-0.62768,	-0.86331,	-1.08293,	-1.15706,	-1.24321,	-1.21239,	-1.10364,	-1.01817,	-0.89276,	-0.82761,	-0.69109,	-0.53759,	-0.45555,	-0.52076,	-0.42283,	-0.29087,	-0.15371,	-0.17761,	-0.29925,	-0.41774,	-0.49299,	-0.55199,	-0.50520,	-0.46155,	-0.54613,	-0.47589,	-0.29807,	-0.21173,	-0.04601,	0.09713,	0.11723,	0.06259,	0.05969,	0.03667,	-0.03192,	-0.13113,	-0.44623,	-0.63680,	-0.77279,	-1.06756,	-1.33266,	-1.63439,	-1.97595,	-2.31643,	-2.54420,	-2.67290,	-2.62659,	-2.61530,	-2.62960,	-2.78930,	-2.96970,	-3.02251,	-2.90622,	-2.73029,	-2.52139,	-2.39259,	-2.50129,	-2.50401,	-2.32052,	-2.19668,	-2.10166,	-2.13004,	-2.27575,	-2.36386,	-2.32526,	-2.37463,	-2.47567,	-2.44021,	-2.46423,	-2.40110,	-2.20619,	-2.03024,	-1.95839,	-1.99775,	-1.98694,	-1.86561,	-1.70979,	-1.63222,	-1.56925,	0.00000,	0.00000,	0.00000,	0.00000,	0.00000,	0.00000,	0.00000,	0.00000,	-0.40131,	-0.39140
0.71872,	0.70645,	0.69040,	0.51544,	0.40534,	0.27117,	0.14164,	0.12049,	0.09858,	-0.05708,	-0.11528,	-0.08900,	-0.15303,	-0.44751,	-0.67776,	-0.73597,	-0.73074,	-0.59771,	-0.39238,	-0.39607,	-0.42375,	-0.42944,	-0.34854,	-0.19737,	-0.05922,	0.02347,	0.06872,	0.03397,	-0.15971,	-0.29547,	-0.42184,	-0.57346,	-0.67144,	-0.76408,	-0.73999,	-0.78140,	-0.80209,	-0.94618,	-1.25378,	-1.46581,	-1.57013,	-1.63216,	-1.59607,	-1.49751,	-1.36865,	-1.31008,	-1.23543,	-1.08111,	-0.92350,	-0.74799,	-0.64861,	-0.72152,	-0.70147,	-0.57899,	-0.53805,	-0.59348,	-0.67882,	-0.76593,	-0.80628,	-0.75549,	-0.76720,	-0.64692,	-0.46440,	-0.36413,	-0.19797,	-0.03065,	0.21054,	0.41376,	0.53477,	0.59767,	0.60885,	0.77098,	0.86798,	0.80416,	0.71312,	0.76417,	0.76642,	0.69228,	0.62585,	0.57086,	0.39621,	0.31246,	0.34949,	0.29652,	0.24153,	0.30936,	0.34210,	0.30557,	0.22580,	0.10556,	-0.01998,	-0.10682,	-0.30876,	-0.47377,	-0.51231,	-0.54104,	-0.40322,	-0.29007,	-0.23424,	-0.21019,	-0.18201,	-0.00789,	0.05327,	0.12065,	0.17237,	0.16135,	0.08460,	0.13573,	0.21865,	0.17214,	-0.04343,	-0.19957,	-0.31502,	-0.29234,	-0.23089,	-0.33593,	-0.40311,	-0.27935,	-0.14449,	-0.04028,	-0.02092,	-0.00107,	0.01297,	0.13736,	0.25604,	0.39423,	0.56166,	0.54061,	0.42639,	0.22992,	0.13993,	0.14435,	0.05035,	0.00987,	-0.04801,	0.09802,	0.26278,	0.38710,	0.39544,	0.36173,	0.20665,	0.06418,	-0.02889,	0.02775,	0.02737,	0.08739,	0.12940,	-0.10501,	-0.42249,	-0.57290,	-0.62739,	-0.65426,	-0.73152,	-0.80756,	-0.87332,	-0.80586,	-0.70742,	-0.61502,	-0.47706,	-0.42575,	-0.28010,	-0.01632,	0.21152,	0.37849,	0.45653,	0.63660,	0.67298,	0.75659,	0.87239,	0.89301,	0.71874,	0.60778,	0.54509,	0.50299,	0.33086,	0.17571,	0.04550,	-0.01007,	0.02719,	-0.10255,	-0.36637,	-0.51631,	-0.66153,	-0.80176,	-0.96236,	-1.09092,	-1.23485,	-1.27962,	-1.41180,	-1.60763,	-1.65096,	-1.74456,	-1.91729,	-2.11294,	-2.22835,	-2.20553,	-2.28333,	-2.18426,	-2.09819,	-2.00817,	-1.90209,	-1.74093,	-1.59520,	-1.37084,	-1.19725,	-1.02974,	-1.03364,	-1.08847,	-1.11965,	-1.09035,	-0.86963,	-0.75465,	-0.79397,	-0.75233,	-0.62270,	-0.48742,	-0.41558,	-0.50138,	-0.80643,	-1.04871,	-1.17950,	-1.21083,	-1.12010,	-1.07164,	-0.99030,	-0.85067,	-0.73858,	-0.53652,	-0.42178,	-0.30688,	-0.37051,	-0.43625,	-0.37981,	-0.25480,	-0.28660,	-0.32131,	-0.33399,	-0.31082,	-0.38167,	-0.46277,	-0.51562,	-0.52035,	-0.37805,	-0.26127,	-0.25396,	-0.18320,	-0.03554,	0.07610,	0.08183,	0.05116,	0.02390,	0.01436,	-0.07607,	-0.34824,	-0.55723,	-0.84199,	-1.23706,	-1.55106,	-1.82197,	-2.08964,	-2.41923,	-2.54600,	-2.56771,	-2.59521,	-2.61295,	-2.58013,	-2.72915,	-2.88529,	-2.94262,	-2.84977,	-2.74597,	-2.64370,	-2.54909,	-2.51331,	-2.35902,	-2.19754,	-2.18095,	-2.23181,	-2.31479,	-2.41684,	-2.47834,	-2.48043,	-2.58524,	-2.67079,	-2.58258,	-2.48954,	-2.30494,	-2.14495,	-2.08482,	-2.08849,	-2.13102,	-2.08313,	-1.99258,	-1.82698,	-1.69226,	-1.65460,	-1.48599,	0.00000,	0.00000,	0.00000,	0.00000,	0.00000,	0.00000,	0.00000,	0.00000,	-0.50652
0.51158,	0.45740,	0.41426,	0.27227,	0.19517,	0.04615,	-0.13174,	-0.16039,	-0.11937,	-0.18510,	-0.24338,	-0.21030,	-0.29978,	-0.50919,	-0.69032,	-0.87478,	-0.88001,	-0.69722,	-0.52939,	-0.46398,	-0.46709,	-0.49736,	-0.37540,	-0.21254,	-0.18487,	-0.09105,	-0.06736,	-0.10694,	-0.18524,	-0.28293,	-0.46053,	-0.66541,	-0.76891,	-0.82030,	-0.75833,	-0.74320,	-0.72352,	-0.91816,	-1.28958,	-1.52442,	-1.62616,	-1.66786,	-1.68013,	-1.62811,	-1.47848,	-1.24712,	-0.99386,	-0.88309,	-0.79217,	-0.65175,	-0.65954,	-0.77194,	-0.81368,	-0.78555,	-0.70227,	-0.66439,	-0.75451,	-0.78480,	-0.78874,	-0.81762,	-0.80716,	-0.67095,	-0.47710,	-0.38465,	-0.20859,	-0.05274,	0.14836,	0.37696,	0.57388,	0.66160,	0.68324,	0.85005,	0.97277,	0.96636,	0.81203,	0.71320,	0.64115,	0.62576,	0.74557,	0.75347,	0.63594,	0.64715,	0.63328,	0.52756,	0.47164,	0.45667,	0.47686,	0.49938,	0.37731,	0.24963,	0.15492,	-0.00925,	-0.12177,	-0.19144,	-0.17660,	-0.24183,	-0.15545,	-0.13440,	-0.14251,	-0.08951,	-0.00262,	0.15709,	0.18685,	0.21498,	0.32691,	0.46521,	0.42655,	0.37361,	0.34610,	0.27092,	0.19466,	0.03421,	-0.15043,	-0.11321,	-0.07627,	-0.18006,	-0.13709,	-0.02082,	0.10808,	0.20231,	0.07499,	0.00042,	0.07296,	0.11521,	0.29970,	0.47909,	0.65386,	0.61796,	0.53244,	0.34819,	0.27297,	0.31685,	0.28706,	0.24585,	0.10377,	0.11761,	0.25488,	0.45189,	0.53960,	0.47906,	0.30382,	0.16384,	0.18719,	0.23865,	0.19138,	0.26730,	0.25795,	-0.04753,	-0.31986,	-0.53722,	-0.65952,	-0.65428,	-0.74720,	-0.82117,	-0.73382,	-0.72839,	-0.61710,	-0.55678,	-0.46310,	-0.46822,	-0.35948,	-0.14051,	0.07025,	0.26059,	0.48270,	0.78421,	0.83125,	0.83225,	0.87553,	0.93094,	0.85016,	0.69318,	0.56123,	0.47755,	0.44315,	0.36290,	0.22561,	0.20192,	0.19636,	-0.09222,	-0.39554,	-0.60244,	-0.76260,	-0.82464,	-0.96756,	-1.15297,	-1.17504,	-1.23416,	-1.28564,	-1.39120,	-1.38755,	-1.49950,	-1.69532,	-1.93043,	-2.13275,	-2.19239,	-2.22975,	-2.08107,	-1.95295,	-1.86871,	-1.76310,	-1.54870,	-1.35099,	-1.19110,	-1.04055,	-0.90199,	-0.76132,	-0.69687,	-0.74353,	-0.70884,	-0.55811,	-0.60474,	-0.65083,	-0.61200,	-0.48390,	-0.28952,	-0.23865,	-0.47242,	-0.71603,	-0.99546,	-1.15016,	-1.17904,	-1.12437,	-1.13376,	-1.00881,	-0.78424,	-0.64112,	-0.46769,	-0.35922,	-0.22797,	-0.28310,	-0.42446,	-0.47207,	-0.36180,	-0.31722,	-0.33595,	-0.31218,	-0.30272,	-0.27634,	-0.32452,	-0.49439,	-0.49771,	-0.33973,	-0.32951,	-0.33279,	-0.30513,	-0.21240,	-0.04195,	0.01383,	-0.08511,	-0.00662,	0.01238,	-0.07873,	-0.29455,	-0.56259,	-0.94924,	-1.37932,	-1.67140,	-1.87881,	-2.11020,	-2.37443,	-2.43886,	-2.46595,	-2.53627,	-2.58130,	-2.54072,	-2.62147,	-2.77899,	-2.85988,	-2.83567,	-2.70657,	-2.53576,	-2.49694,	-2.41758,	-2.20941,	-2.16710,	-2.24446,	-2.38729,	-2.53146,	-2.57551,	-2.59811,	-2.70173,	-2.77840,	-2.83625,	-2.72335,	-2.50199,	-2.31410,	-2.22948,	-2.26774,	-2.27928,	-2.28442,	-2.27334,	-2.22808,	-2.05218,	-1.90147,	-1.81757,	-1.58542,	-1.26033,	0.00000,	0.00000,	0.00000,	0.00000,	0.00000,	0.00000,	0.00000,	-0.64103
0.44764,	0.41227,	0.35816,	0.23595,	0.10747,	-0.08328,	-0.20480,	-0.23744,	-0.31187,	-0.37838,	-0.33770,	-0.27812,	-0.40113,	-0.57163,	-0.76658,	-0.99917,	-1.03143,	-0.84465,	-0.58184,	-0.41608,	-0.35437,	-0.37152,	-0.40712,	-0.40507,	-0.37829,	-0.26366,	-0.21234,	-0.15650,	-0.18042,	-0.21521,	-0.28663,	-0.48341,	-0.64245,	-0.74011,	-0.71786,	-0.70491,	-0.74296,	-1.02519,	-1.33122,	-1.47851,	-1.65133,	-1.75954,	-1.73127,	-1.64166,	-1.48188,	-1.18418,	-0.90114,	-0.85275,	-0.87284,	-0.79046,	-0.70490,	-0.71742,	-0.78785,	-0.81921,	-0.79579,	-0.82392,	-0.88722,	-0.84499,	-0.76093,	-0.71742,	-0.71059,	-0.62327,	-0.34971,	-0.16606,	0.02390,	0.17893,	0.32782,	0.50362,	0.67768,	0.74247,	0.84680,	1.07010,	1.08572,	0.98088,	0.85632,	0.77933,	0.68482,	0.69333,	0.85243,	0.87241,	0.81063,	0.85902,	0.86504,	0.79063,	0.73774,	0.66196,	0.57366,	0.50503,	0.46780,	0.51592,	0.51224,	0.37526,	0.23529,	0.08117,	0.14919,	0.15086,	0.17021,	0.09837,	0.03955,	0.10410,	0.21347,	0.30342,	0.36444,	0.48298,	0.56906,	0.64252,	0.65616,	0.62772,	0.51079,	0.42982,	0.44291,	0.26365,	0.00584,	-0.02846,	0.07380,	0.10261,	0.16696,	0.26462,	0.32997,	0.24759,	0.07309,	0.03161,	0.14399,	0.23164,	0.42213,	0.51776,	0.71448,	0.77060,	0.73217,	0.60847,	0.56070,	0.57748,	0.52750,	0.40102,	0.26086,	0.33961,	0.42951,	0.49934,	0.62040,	0.65307,	0.50522,	0.37206,	0.37334,	0.30956,	0.21792,	0.20546,	0.18659,	0.03354,	-0.13228,	-0.26375,	-0.43071,	-0.62630,	-0.77230,	-0.78802,	-0.61334,	-0.54111,	-0.44894,	-0.54487,	-0.47293,	-0.38417,	-0.27861,	-0.09596,	0.08895,	0.26438,	0.52785,	0.78489,	0.83813,	0.89659,	0.86282,	0.80921,	0.83785,	0.80519,	0.63900,	0.52683,	0.57154,	0.45473,	0.24643,	0.14187,	0.12717,	-0.06301,	-0.33247,	-0.52111,	-0.68490,	-0.86683,	-1.00736,	-1.10368,	-1.05281,	-1.05192,	-1.03682,	-1.16881,	-1.13881,	-1.16355,	-1.36117,	-1.60949,	-1.83013,	-1.92728,	-1.95291,	-1.88250,	-1.76837,	-1.57391,	-1.43850,	-1.36218,	-1.23486,	-1.05595,	-0.90154,	-0.80505,	-0.59355,	-0.46909,	-0.44483,	-0.36787,	-0.25120,	-0.27455,	-0.34890,	-0.33709,	-0.23260,	-0.18579,	-0.22994,	-0.46234,	-0.62399,	-0.80345,	-0.91794,	-1.06488,	-1.09697,	-1.06290,	-0.91690,	-0.68000,	-0.52904,	-0.41104,	-0.34471,	-0.24756,	-0.24951,	-0.28197,	-0.36303,	-0.40809,	-0.35275,	-0.28322,	-0.25641,	-0.27666,	-0.20587,	-0.27937,	-0.50301,	-0.55147,	-0.40744,	-0.31993,	-0.29118,	-0.28079,	-0.26057,	-0.25888,	-0.27061,	-0.30318,	-0.12525,	-0.04210,	-0.08447,	-0.32564,	-0.61618,	-0.90465,	-1.26658,	-1.54663,	-1.72728,	-1.93744,	-2.15474,	-2.27414,	-2.41386,	-2.46001,	-2.47937,	-2.59824,	-2.72328,	-2.75182,	-2.70998,	-2.63155,	-2.49537,	-2.38910,	-2.46024,	-2.44602,	-2.25826,	-2.17374,	-2.26152,	-2.44770,	-2.58886,	-2.68634,	-2.78063,	-2.87326,	-2.88435,	-2.88388,	-2.73273,	-2.56331,	-2.48184,	-2.41092,	-2.46114,	-2.44041,	-2.36089,	-2.35714,	-2.38144,	-2.26303,	-2.12761,	-1.95291,	-1.65137,	-1.38636,	-1.19891,	0.00000,	0.00000,	0.00000,	0.00000,	0.00000,	0.00000,	-0.84510
0.40092,	0.42829,	0.39770,	0.26698,	0.12874,	0.00315,	-0.17526,	-0.30303,	-0.42196,	-0.48663,	-0.38067,	-0.39237,	-0.48823,	-0.69924,	-0.90729,	-0.98365,	-0.93119,	-0.80538,	-0.65265,	-0.53952,	-0.38800,	-0.38620,	-0.49733,	-0.53157,	-0.42225,	-0.36671,	-0.36246,	-0.20001,	-0.07510,	-0.08448,	-0.18182,	-0.41811,	-0.60639,	-0.77476,	-0.82831,	-0.85841,	-0.91847,	-1.07416,	-1.32998,	-1.49674,	-1.65205,	-1.75683,	-1.66828,	-1.58060,	-1.40958,	-1.21877,	-1.06123,	-0.94580,	-0.92781,	-0.87813,	-0.80723,	-0.78840,	-0.77329,	-0.79303,	-0.81997,	-0.87835,	-0.92570,	-0.92703,	-0.86672,	-0.67994,	-0.51180,	-0.39814,	-0.15694,	0.06462,	0.28125,	0.47703,	0.58729,	0.70430,	0.82237,	0.97715,	1.08164,	1.17744,	1.12916,	0.99946,	0.96649,	0.97156,	0.94114,	0.95068,	0.95371,	1.01215,	1.05342,	1.10870,	1.08042,	0.99418,	0.99328,	0.90550,	0.72349,	0.64164,	0.72014,	0.84866,	0.77450,	0.68531,	0.58014,	0.39251,	0.36480,	0.36887,	0.35526,	0.33508,	0.26604,	0.33831,	0.42953,	0.59650,	0.68867,	0.74849,	0.79158,	0.78128,	0.80966,	0.81374,	0.70390,	0.69747,	0.65368,	0.55751,	0.36599,	0.28419,	0.33721,	0.32911,	0.35370,	0.43535,	0.42699,	0.31528,	0.22310,	0.22963,	0.24213,	0.38357,	0.61690,	0.74779,	0.86403,	0.94480,	0.92205,	0.91227,	0.83779,	0.79580,	0.65002,	0.56355,	0.49886,	0.54849,	0.62657,	0.63655,	0.69744,	0.73267,	0.59441,	0.54602,	0.44523,	0.39803,	0.36724,	0.29457,	0.19458,	0.05605,	-0.02481,	-0.05081,	-0.29539,	-0.59334,	-0.74815,	-0.73140,	-0.65546,	-0.53086,	-0.38040,	-0.38540,	-0.37844,	-0.27464,	-0.20047,	0.02731,	0.16751,	0.33878,	0.49354,	0.69220,	0.76312,	0.74023,	0.69232,	0.67401,	0.78760,	0.87998,	0.72517,	0.71059,	0.68946,	0.54476,	0.31249,	0.14576,	0.06908,	-0.09293,	-0.27083,	-0.35293,	-0.54109,	-0.77137,	-0.87136,	-0.84900,	-0.88151,	-0.87697,	-0.80649,	-0.82857,	-0.88152,	-0.93687,	-1.17648,	-1.34988,	-1.53171,	-1.56260,	-1.61180,	-1.56500,	-1.47274,	-1.38439,	-1.26405,	-1.19104,	-1.06408,	-0.82388,	-0.69526,	-0.53873,	-0.39036,	-0.22521,	-0.05356,	0.07855,	0.09093,	-0.02719,	-0.15741,	-0.13442,	-0.10085,	-0.15056,	-0.18727,	-0.27294,	-0.45406,	-0.60170,	-0.65081,	-0.74108,	-0.89337,	-0.92126,	-0.89880,	-0.71510,	-0.60317,	-0.49598,	-0.44908,	-0.29237,	-0.14585,	-0.15646,	-0.24619,	-0.29431,	-0.22244,	-0.11958,	-0.20435,	-0.19549,	-0.18337,	-0.26483,	-0.36595,	-0.37947,	-0.30583,	-0.27525,	-0.26073,	-0.19468,	-0.25076,	-0.39443,	-0.43548,	-0.36107,	-0.25326,	-0.24261,	-0.23034,	-0.33840,	-0.57462,	-0.77945,	-1.09624,	-1.35779,	-1.59868,	-1.84054,	-2.05878,	-2.18963,	-2.27342,	-2.36644,	-2.45421,	-2.63199,	-2.76949,	-2.68637,	-2.59409,	-2.42190,	-2.35618,	-2.37154,	-2.42981,	-2.43233,	-2.33485,	-2.31956,	-2.39843,	-2.46063,	-2.55651,	-2.69930,	-2.78825,	-2.79236,	-2.82967,	-2.90277,	-2.79669,	-2.67612,	-2.69279,	-2.70789,	-2.75150,	-2.65579,	-2.49227,	-2.46481,	-2.49803,	-2.40726,	-2.17996,	-2.04509,	-1.87152,	-1.62623,	0.00000,	0.00000,	0.00000,	0.00000,	0.00000,	0.00000,	0.00000,	-0.77529
0.23945,	0.28955,	0.33503,	0.24005,	0.08047,	-0.02949,	-0.15225,	-0.27224,	-0.36724,	-0.42693,	-0.41109,	-0.52311,	-0.66583,	-0.91475,	-1.07002,	-1.04024,	-0.94066,	-0.84420,	-0.71895,	-0.64995,	-0.58097,	-0.60682,	-0.55611,	-0.43722,	-0.33363,	-0.32971,	-0.33682,	-0.14301,	0.00100,	-0.08051,	-0.22924,	-0.47788,	-0.71655,	-0.94437,	-0.99081,	-1.01021,	-1.08068,	-1.13970,	-1.27051,	-1.39453,	-1.51341,	-1.59073,	-1.55934,	-1.54614,	-1.45355,	-1.40522,	-1.30026,	-1.12865,	-1.06280,	-1.00157,	-0.89901,	-0.83525,	-0.83897,	-0.88901,	-0.83829,	-0.78654,	-0.87192,	-0.94539,	-0.89574,	-0.64752,	-0.41190,	-0.30591,	-0.06146,	0.20454,	0.40790,	0.58615,	0.72659,	0.88026,	0.96075,	1.12033,	1.25679,	1.34867,	1.30076,	1.20502,	1.16573,	1.14282,	1.11486,	1.07459,	0.99942,	1.06289,	1.12885,	1.20307,	1.26626,	1.28447,	1.25328,	1.09377,	0.96077,	1.02178,	1.10028,	1.12250,	0.95300,	0.86288,	0.77609,	0.56397,	0.51237,	0.53620,	0.49395,	0.48197,	0.44672,	0.55923,	0.62048,	0.79258,	0.94139,	1.06773,	1.10181,	1.07134,	1.05728,	0.99327,	0.89476,	0.88174,	0.80600,	0.76171,	0.60203,	0.50204,	0.53342,	0.54481,	0.49270,	0.45712,	0.45965,	0.51159,	0.45489,	0.39769,	0.35086,	0.48709,	0.72061,	0.82795,	0.92742,	1.07579,	1.06288,	1.04902,	0.96625,	0.94141,	0.74306,	0.64156,	0.63383,	0.76104,	0.84449,	0.85812,	0.81662,	0.69746,	0.52709,	0.47885,	0.41737,	0.47752,	0.48048,	0.39801,	0.28761,	0.20796,	0.10801,	-0.05625,	-0.35624,	-0.50956,	-0.63150,	-0.66534,	-0.63673,	-0.51271,	-0.31862,	-0.27256,	-0.28401,	-0.16778,	-0.13848,	0.03323,	0.14833,	0.36888,	0.43824,	0.52837,	0.59708,	0.63968,	0.63768,	0.69896,	0.81824,	0.84648,	0.70581,	0.69455,	0.64128,	0.53120,	0.29445,	0.10783,	0.01883,	-0.04918,	-0.17889,	-0.32663,	-0.51711,	-0.58321,	-0.62243,	-0.63152,	-0.71164,	-0.71875,	-0.63599,	-0.65447,	-0.75915,	-0.79781,	-1.04042,	-1.22499,	-1.37813,	-1.30449,	-1.34380,	-1.34385,	-1.29962,	-1.20057,	-1.06639,	-0.90615,	-0.69839,	-0.49937,	-0.41066,	-0.28252,	-0.17747,	0.03171,	0.23373,	0.30830,	0.22484,	0.12881,	-0.00683,	-0.08652,	-0.10533,	-0.04150,	0.01383,	-0.03997,	-0.24687,	-0.41372,	-0.45658,	-0.56662,	-0.79882,	-0.85121,	-0.93161,	-0.88459,	-0.82788,	-0.66032,	-0.56341,	-0.38552,	-0.18230,	-0.07658,	-0.08360,	-0.05539,	0.03145,	0.03245,	-0.15801,	-0.21522,	-0.27542,	-0.32743,	-0.36501,	-0.37121,	-0.33163,	-0.26608,	-0.23529,	-0.25313,	-0.37220,	-0.42981,	-0.40089,	-0.36158,	-0.34944,	-0.39980,	-0.36832,	-0.42472,	-0.61712,	-0.72271,	-0.97924,	-1.28189,	-1.61691,	-1.85823,	-2.05279,	-2.17590,	-2.18093,	-2.19516,	-2.26830,	-2.42029,	-2.53942,	-2.51811,	-2.50841,	-2.43096,	-2.47846,	-2.50949,	-2.52867,	-2.53157,	-2.47847,	-2.44316,	-2.44094,	-2.48253,	-2.59730,	-2.65217,	-2.62872,	-2.64858,	-2.75792,	-2.89347,	-2.88044,	-2.86476,	-2.97470,	-3.00406,	-2.99919,	-2.90697,	-2.76874,	-2.68999,	-2.65443,	-2.57962,	-2.34336,	-2.18093,	-2.00821,	-1.73958,	0.00000,	0.00000,	0.00000,	0.00000,	0.00000,	0.00000,	0.00000,	-0.77524
0.09831,	0.19745,	0.24472,	0.22106,	0.19845,	0.04811,	-0.14731,	-0.22818,	-0.36049,	-0.49075,	-0.52489,	-0.54984,	-0.73157,	-0.98074,	-1.11690,	-1.13584,	-0.97543,	-0.90126,	-0.86811,	-0.79490,	-0.77389,	-0.72335,	-0.56104,	-0.39478,	-0.34988,	-0.34621,	-0.15931,	0.00308,	-0.03698,	-0.10451,	-0.24745,	-0.49098,	-0.72986,	-0.95828,	-1.04045,	-1.08373,	-1.07850,	-1.14716,	-1.31095,	-1.37310,	-1.45030,	-1.51537,	-1.49933,	-1.42650,	-1.45491,	-1.57162,	-1.49739,	-1.35542,	-1.16000,	-1.04930,	-1.03192,	-0.95560,	-0.96221,	-0.91940,	-0.80476,	-0.73283,	-0.80023,	-0.92484,	-0.77165,	-0.53376,	-0.41129,	-0.25031,	0.02803,	0.30159,	0.55447,	0.72457,	0.87134,	1.02397,	1.18271,	1.31058,	1.35544,	1.48691,	1.48683,	1.36895,	1.31284,	1.34347,	1.30528,	1.17617,	1.09864,	1.09618,	1.21323,	1.34803,	1.43011,	1.53087,	1.48119,	1.37914,	1.36203,	1.40260,	1.43587,	1.32474,	1.25533,	1.21090,	1.01426,	0.83890,	0.83060,	0.77397,	0.70285,	0.63911,	0.61706,	0.70928,	0.89025,	1.12554,	1.22115,	1.37220,	1.39029,	1.25081,	1.21033,	1.23637,	1.23893,	1.14845,	1.06000,	0.92378,	0.79249,	0.74735,	0.69127,	0.73479,	0.70006,	0.62916,	0.65016,	0.65841,	0.63052,	0.46960,	0.48867,	0.69012,	0.80328,	0.86448,	1.03750,	1.15769,	1.18319,	1.13458,	1.06784,	1.02858,	0.92403,	0.86321,	0.76154,	0.83602,	0.92029,	0.84901,	0.73510,	0.62393,	0.51142,	0.38497,	0.43891,	0.50277,	0.51231,	0.52373,	0.39948,	0.31776,	0.19326,	-0.04225,	-0.25869,	-0.39275,	-0.44628,	-0.55118,	-0.47184,	-0.29050,	-0.23567,	-0.26161,	-0.19414,	-0.14827,	-0.08419,	0.06940,	0.20017,	0.37184,	0.41979,	0.48201,	0.46763,	0.52056,	0.63663,	0.67439,	0.73100,	0.75668,	0.72979,	0.64297,	0.62307,	0.52970,	0.32428,	0.19024,	0.01581,	-0.05709,	-0.11694,	-0.29257,	-0.39743,	-0.42467,	-0.40058,	-0.51282,	-0.56855,	-0.47989,	-0.51571,	-0.65343,	-0.67021,	-0.70836,	-0.88280,	-1.06878,	-1.19545,	-1.16740,	-1.16100,	-1.09370,	-1.13450,	-1.08598,	-0.88935,	-0.70879,	-0.44211,	-0.21018,	-0.04484,	0.00650,	0.14629,	0.31579,	0.44297,	0.52776,	0.38820,	0.27479,	0.20441,	0.08483,	0.10330,	0.13545,	0.18174,	0.04276,	-0.15144,	-0.19364,	-0.27619,	-0.48952,	-0.66279,	-0.78634,	-0.97222,	-1.05053,	-1.00162,	-0.82431,	-0.62132,	-0.32363,	-0.17536,	-0.10261,	0.00940,	0.06893,	0.13251,	0.15650,	0.06240,	-0.14076,	-0.29522,	-0.37476,	-0.43396,	-0.38525,	-0.37734,	-0.32214,	-0.21873,	-0.29293,	-0.36565,	-0.40560,	-0.38756,	-0.43794,	-0.46873,	-0.37436,	-0.35646,	-0.50929,	-0.59757,	-0.68155,	-0.91404,	-1.22865,	-1.58580,	-1.85109,	-2.02486,	-2.01212,	-1.98655,	-2.05910,	-2.10364,	-2.22786,	-2.35521,	-2.38413,	-2.35066,	-2.40029,	-2.51482,	-2.52839,	-2.56453,	-2.50619,	-2.50094,	-2.55621,	-2.51582,	-2.56916,	-2.62176,	-2.61122,	-2.53752,	-2.55734,	-2.72263,	-2.77983,	-2.91285,	-3.15035,	-3.25241,	-3.24141,	-3.20655,	-3.11390,	-3.02772,	-2.95802,	-2.87440,	-2.67435,	-2.44579,	-2.31182,	-2.08905,	-1.84613,	0.00000,	0.00000,	0.00000,	0.00000,	0.00000,	0.00000,	-0.89380,	-0.74786
0.06962,	0.21172,	0.22382,	0.24097,	0.22933,	0.01269,	-0.22419,	-0.27415,	-0.37250,	-0.54598,	-0.71639,	-0.71992,	-0.72837,	-0.86732,	-0.98203,	-1.06588,	-1.01961,	-1.01664,	-0.99513,	-0.88368,	-0.88352,	-0.80532,	-0.65855,	-0.55142,	-0.46008,	-0.35871,	-0.12930,	-0.05486,	-0.11439,	-0.09150,	-0.15827,	-0.33804,	-0.52942,	-0.72806,	-0.88020,	-0.98721,	-1.05022,	-1.21699,	-1.39599,	-1.40665,	-1.38716,	-1.38736,	-1.46746,	-1.46226,	-1.45707,	-1.51986,	-1.44158,	-1.32909,	-1.15768,	-1.12153,	-1.19367,	-1.16335,	-1.19922,	-1.09554,	-0.96344,	-0.86382,	-0.76129,	-0.79142,	-0.70175,	-0.57993,	-0.41644,	-0.13469,	0.11396,	0.38124,	0.68942,	0.86175,	0.98286,	1.13401,	1.28297,	1.29907,	1.28348,	1.46519,	1.57503,	1.52867,	1.41631,	1.36536,	1.38905,	1.34664,	1.32157,	1.33400,	1.40558,	1.45913,	1.50820,	1.59565,	1.50659,	1.45317,	1.51792,	1.50195,	1.53617,	1.50941,	1.53141,	1.47113,	1.32316,	1.31501,	1.29186,	1.14727,	1.03081,	0.91986,	0.87380,	0.93132,	1.14345,	1.32991,	1.38079,	1.53300,	1.59355,	1.53557,	1.49410,	1.49187,	1.61564,	1.59012,	1.43371,	1.18464,	0.97347,	0.84070,	0.72797,	0.81861,	0.82682,	0.70002,	0.65211,	0.56747,	0.60811,	0.54965,	0.56157,	0.69001,	0.79247,	0.94883,	1.14095,	1.24803,	1.30899,	1.25313,	1.17334,	1.13451,	1.09589,	0.97978,	0.80131,	0.78949,	0.85155,	0.80682,	0.69649,	0.55727,	0.52772,	0.51084,	0.58547,	0.59037,	0.52642,	0.47304,	0.36664,	0.26764,	0.08814,	-0.16049,	-0.24115,	-0.34490,	-0.30014,	-0.25495,	-0.17336,	-0.11367,	-0.15400,	-0.11677,	-0.03784,	-0.07390,	0.00210,	0.16570,	0.27185,	0.37695,	0.42819,	0.45943,	0.43971,	0.52625,	0.72064,	0.76466,	0.71156,	0.56996,	0.57859,	0.61281,	0.62280,	0.58805,	0.42773,	0.17276,	-0.10147,	-0.18770,	-0.20660,	-0.41043,	-0.48836,	-0.51779,	-0.44681,	-0.47841,	-0.51090,	-0.48799,	-0.59571,	-0.66882,	-0.62890,	-0.64476,	-0.73181,	-0.85415,	-0.97555,	-1.03622,	-1.02804,	-0.99709,	-1.03212,	-0.94509,	-0.69884,	-0.45125,	-0.18601,	-0.07770,	0.08449,	0.26522,	0.45979,	0.55244,	0.56299,	0.53906,	0.43236,	0.36449,	0.36018,	0.23176,	0.23853,	0.18249,	0.15726,	0.06636,	-0.09108,	-0.18874,	-0.30222,	-0.41756,	-0.53692,	-0.72721,	-0.93448,	-0.98098,	-0.91226,	-0.75206,	-0.50703,	-0.28038,	-0.24232,	-0.21849,	-0.04613,	0.10884,	0.19265,	0.20235,	0.15989,	-0.01966,	-0.23545,	-0.36648,	-0.45467,	-0.53059,	-0.60279,	-0.53158,	-0.38746,	-0.50824,	-0.54367,	-0.56722,	-0.55848,	-0.54460,	-0.52325,	-0.41007,	-0.39863,	-0.43931,	-0.41683,	-0.53743,	-0.76145,	-1.02012,	-1.30491,	-1.56074,	-1.74318,	-1.77502,	-1.84731,	-1.99980,	-2.05176,	-2.08187,	-2.15656,	-2.32326,	-2.38207,	-2.36146,	-2.37013,	-2.36495,	-2.40023,	-2.42281,	-2.54329,	-2.67257,	-2.66964,	-2.77504,	-2.80654,	-2.78230,	-2.68606,	-2.60097,	-2.70816,	-2.82049,	-3.06720,	-3.27826,	-3.29082,	-3.28279,	-3.25521,	-3.19161,	-3.16942,	-3.16642,	-3.06984,	-2.84387,	-2.66486,	-2.47814,	-2.20625,	-1.99033,	0.00000,	0.00000,	0.00000,	0.00000,	0.00000,	0.00000,	-0.92383,	-0.83695
0.00817,	0.20333,	0.15163,	0.18877,	0.16482,	-0.09409,	-0.27152,	-0.31853,	-0.46380,	-0.62155,	-0.83633,	-0.87437,	-0.85067,	-0.94035,	-0.96749,	-1.05769,	-1.07524,	-1.04803,	-0.98606,	-0.92285,	-0.94514,	-0.86099,	-0.68774,	-0.68882,	-0.63154,	-0.51143,	-0.39788,	-0.28410,	-0.22863,	-0.26581,	-0.26156,	-0.35762,	-0.52690,	-0.67554,	-0.90176,	-1.01449,	-1.05961,	-1.21821,	-1.28394,	-1.25795,	-1.28709,	-1.27617,	-1.40247,	-1.48288,	-1.49303,	-1.49195,	-1.37181,	-1.32980,	-1.26197,	-1.23648,	-1.29495,	-1.34123,	-1.41470,	-1.27210,	-1.05278,	-0.92831,	-0.80642,	-0.78002,	-0.81498,	-0.65740,	-0.32679,	-0.10981,	0.06517,	0.33970,	0.61226,	0.81675,	0.89668,	1.08647,	1.28314,	1.23868,	1.24007,	1.42330,	1.49044,	1.51160,	1.47391,	1.42694,	1.47090,	1.44746,	1.49619,	1.52101,	1.51354,	1.55869,	1.59068,	1.57079,	1.42888,	1.41044,	1.55006,	1.54888,	1.52783,	1.59341,	1.59299,	1.58293,	1.59924,	1.57559,	1.47926,	1.37357,	1.23941,	1.21692,	1.16899,	1.20659,	1.41575,	1.49148,	1.52534,	1.69050,	1.74322,	1.82373,	1.87968,	1.84143,	1.94417,	1.85934,	1.67442,	1.36763,	1.04895,	0.91226,	0.82836,	0.87344,	0.81601,	0.65248,	0.59117,	0.54615,	0.56768,	0.60766,	0.53758,	0.61849,	0.82271,	0.94989,	1.05549,	1.25424,	1.30998,	1.29451,	1.16897,	1.08878,	1.10441,	0.95200,	0.79393,	0.80632,	0.77859,	0.73583,	0.72268,	0.60628,	0.60648,	0.57631,	0.60217,	0.53275,	0.35020,	0.26856,	0.20925,	0.07871,	-0.16462,	-0.36227,	-0.32762,	-0.31195,	-0.30249,	-0.15908,	-0.13474,	-0.13807,	-0.04809,	0.04755,	0.02401,	-0.00234,	-0.01726,	0.11991,	0.18034,	0.24032,	0.41038,	0.53752,	0.59268,	0.75499,	0.87620,	0.83148,	0.75232,	0.50997,	0.47365,	0.47973,	0.48246,	0.47755,	0.27226,	-0.01369,	-0.24415,	-0.31156,	-0.35361,	-0.54449,	-0.60790,	-0.56024,	-0.57546,	-0.57104,	-0.63486,	-0.67065,	-0.66480,	-0.68416,	-0.77152,	-0.73907,	-0.80406,	-0.84197,	-0.89929,	-0.98162,	-0.91770,	-0.88317,	-0.86906,	-0.66904,	-0.44396,	-0.24192,	0.02474,	0.06248,	0.18416,	0.33074,	0.48112,	0.52012,	0.40489,	0.33895,	0.34425,	0.33055,	0.29591,	0.18481,	0.20037,	0.21828,	0.11730,	0.07521,	-0.08006,	-0.29278,	-0.34674,	-0.39485,	-0.63206,	-0.78867,	-0.91610,	-0.83648,	-0.72525,	-0.64180,	-0.40623,	-0.25208,	-0.27717,	-0.21553,	-0.06871,	0.05479,	0.19677,	0.21776,	0.15481,	-0.07222,	-0.33692,	-0.45784,	-0.59807,	-0.76536,	-0.82727,	-0.75038,	-0.68765,	-0.82687,	-0.79685,	-0.64614,	-0.63357,	-0.59882,	-0.56958,	-0.55253,	-0.43298,	-0.29697,	-0.30816,	-0.38957,	-0.57182,	-0.77762,	-0.95822,	-1.22857,	-1.40379,	-1.49597,	-1.69842,	-1.85998,	-1.94873,	-2.03493,	-2.06323,	-2.26009,	-2.39568,	-2.39499,	-2.39887,	-2.39688,	-2.49257,	-2.60162,	-2.71054,	-2.81606,	-2.87468,	-2.98485,	-2.98084,	-2.87701,	-2.82883,	-2.78805,	-2.86067,	-3.07073,	-3.19777,	-3.19519,	-3.28976,	-3.33617,	-3.32057,	-3.31396,	-3.27993,	-3.34175,	-3.22032,	-2.94713,	-2.79580,	-2.54478,	-2.29501,	-2.20224,	0.00000,	0.00000,	0.00000,	0.00000,	0.00000,	0.00000,	-1.12217,	-1.09224
-0.12034,	0.07597,	0.04473,	0.08282,	0.05948,	-0.19608,	-0.40387,	-0.46971,	-0.59236,	-0.71769,	-0.89313,	-0.92563,	-0.88602,	-0.93681,	-0.87979,	-0.90207,	-0.87716,	-0.83972,	-0.82865,	-0.84572,	-0.87181,	-0.77676,	-0.64330,	-0.72963,	-0.72978,	-0.67120,	-0.59745,	-0.43136,	-0.38377,	-0.49006,	-0.45869,	-0.51880,	-0.70722,	-0.84398,	-1.02594,	-1.08044,	-1.03731,	-1.07747,	-1.08344,	-1.05502,	-1.08755,	-1.09969,	-1.23952,	-1.34576,	-1.36856,	-1.33412,	-1.21892,	-1.23884,	-1.23267,	-1.21676,	-1.26950,	-1.32232,	-1.35322,	-1.16783,	-0.94441,	-0.87872,	-0.82346,	-0.81623,	-0.81948,	-0.54345,	-0.19684,	-0.09479,	0.03442,	0.26471,	0.43917,	0.60229,	0.70327,	0.96353,	1.21814,	1.19302,	1.15208,	1.24194,	1.27844,	1.34658,	1.41042,	1.47869,	1.58036,	1.58539,	1.65473,	1.65837,	1.62593,	1.68125,	1.67152,	1.59000,	1.46118,	1.46809,	1.58082,	1.53746,	1.50316,	1.56921,	1.57432,	1.65953,	1.69148,	1.56707,	1.46107,	1.40163,	1.29592,	1.35466,	1.39414,	1.48484,	1.66611,	1.67131,	1.63513,	1.72304,	1.79864,	1.98664,	2.11254,	2.09979,	2.15917,	2.03172,	1.86123,	1.57953,	1.27803,	1.19120,	1.09468,	1.03704,	0.88491,	0.70181,	0.62674,	0.56240,	0.58382,	0.64026,	0.57487,	0.71445,	0.89660,	0.89074,	0.95081,	1.18822,	1.22327,	1.16471,	1.02248,	0.95174,	0.97740,	0.84680,	0.70279,	0.68915,	0.64942,	0.65198,	0.69945,	0.65246,	0.69458,	0.67907,	0.68336,	0.58081,	0.35283,	0.26048,	0.15994,	-0.00936,	-0.24194,	-0.38316,	-0.33415,	-0.35014,	-0.38299,	-0.24422,	-0.21266,	-0.10792,	0.07909,	0.15272,	0.10756,	0.08221,	-0.02682,	-0.01140,	0.03048,	0.15300,	0.42850,	0.69287,	0.80406,	0.91322,	0.95304,	0.86231,	0.77015,	0.54366,	0.49780,	0.47360,	0.44896,	0.40809,	0.15175,	-0.07995,	-0.25082,	-0.30467,	-0.33735,	-0.47818,	-0.53276,	-0.54388,	-0.64498,	-0.68204,	-0.76094,	-0.70257,	-0.62731,	-0.73608,	-0.91368,	-0.89078,	-0.97090,	-1.02466,	-1.00857,	-0.97229,	-0.84092,	-0.75341,	-0.73145,	-0.58638,	-0.38487,	-0.16775,	0.11376,	0.18900,	0.31279,	0.40329,	0.46486,	0.45062,	0.27578,	0.21544,	0.24044,	0.20980,	0.16081,	0.11011,	0.16274,	0.17165,	0.05279,	0.03875,	-0.10619,	-0.27129,	-0.30663,	-0.45949,	-0.75858,	-0.85308,	-0.89219,	-0.77930,	-0.66814,	-0.59101,	-0.39873,	-0.27043,	-0.30799,	-0.29441,	-0.17784,	-0.04236,	0.12494,	0.15068,	0.06612,	-0.14521,	-0.37848,	-0.45500,	-0.60067,	-0.76314,	-0.82796,	-0.82655,	-0.84337,	-0.95445,	-0.85414,	-0.62986,	-0.60267,	-0.56930,	-0.55819,	-0.51501,	-0.31239,	-0.18970,	-0.22686,	-0.23472,	-0.37873,	-0.60208,	-0.77541,	-1.01500,	-1.16560,	-1.26611,	-1.51038,	-1.73406,	-1.86920,	-1.98002,	-2.00287,	-2.16100,	-2.29460,	-2.33317,	-2.39751,	-2.45006,	-2.60563,	-2.71729,	-2.78825,	-2.90203,	-2.96805,	-3.01018,	-2.96147,	-2.87296,	-2.93051,	-2.96981,	-3.04039,	-3.18515,	-3.14416,	-3.09362,	-3.28836,	-3.37134,	-3.39696,	-3.45903,	-3.43214,	-3.44076,	-3.23906,	-2.91005,	-2.75472,	-2.60215,	-2.48404,	-2.43342,	0.00000,	0.00000,	0.00000,	0.00000,	0.00000,	0.00000,	-1.19717,	-1.13466
-0.20456,	0.00358,	0.04772,	-0.04738,	-0.21706,	-0.35608,	-0.57647,	-0.66383,	-0.69021,	-0.81587,	-0.90128,	-0.86872,	-0.79805,	-0.81855,	-0.79593,	-0.76274,	-0.72662,	-0.78068,	-0.83306,	-0.90716,	-0.91305,	-0.80162,	-0.70148,	-0.78018,	-0.77647,	-0.78151,	-0.75871,	-0.70921,	-0.72862,	-0.73244,	-0.68339,	-0.70995,	-0.80882,	-0.80116,	-0.81380,	-0.92654,	-1.00287,	-0.92448,	-0.86994,	-0.80841,	-0.72166,	-0.77522,	-0.91255,	-1.02783,	-1.08918,	-1.07370,	-1.03793,	-1.05264,	-1.12644,	-1.28585,	-1.34424,	-1.28429,	-1.15565,	-0.91049,	-0.75255,	-0.80252,	-0.83115,	-0.81030,	-0.68467,	-0.41223,	-0.22383,	-0.10413,	0.02252,	0.18736,	0.33639,	0.52142,	0.71199,	0.89036,	1.00321,	1.06988,	1.09516,	1.15343,	1.26584,	1.30609,	1.33870,	1.44509,	1.58236,	1.66958,	1.71051,	1.68861,	1.65013,	1.57927,	1.52709,	1.52460,	1.50002,	1.55200,	1.56685,	1.46429,	1.46266,	1.51847,	1.55588,	1.63681,	1.56685,	1.53916,	1.50569,	1.43852,	1.38040,	1.50337,	1.69262,	1.78197,	1.79344,	1.79020,	1.79819,	1.81527,	1.97653,	2.15953,	2.25927,	2.27447,	2.22725,	2.06361,	1.90774,	1.74651,	1.61096,	1.45816,	1.26099,	1.10167,	0.87226,	0.74696,	0.69088,	0.58586,	0.57044,	0.60890,	0.60568,	0.75420,	0.77331,	0.76844,	0.85050,	1.01764,	1.06162,	1.02737,	0.99984,	0.94713,	0.81857,	0.65581,	0.53482,	0.43485,	0.50546,	0.60134,	0.63316,	0.61501,	0.65139,	0.68755,	0.70235,	0.64322,	0.48933,	0.25967,	-0.00650,	-0.17304,	-0.33560,	-0.39499,	-0.37116,	-0.45105,	-0.48065,	-0.31097,	-0.22204,	-0.05530,	0.00592,	0.06842,	0.11560,	0.08807,	-0.00486,	0.01528,	0.16991,	0.36877,	0.55948,	0.81248,	1.05223,	1.09110,	1.09011,	0.96700,	0.81018,	0.65815,	0.63171,	0.59247,	0.48778,	0.32393,	0.07933,	-0.14518,	-0.30021,	-0.32086,	-0.36057,	-0.42317,	-0.45543,	-0.54002,	-0.68307,	-0.74515,	-0.82474,	-0.70817,	-0.73535,	-0.87647,	-0.94658,	-0.92793,	-0.99259,	-1.04521,	-0.98478,	-0.86447,	-0.79888,	-0.75060,	-0.65513,	-0.62857,	-0.41020,	-0.11390,	0.15263,	0.31980,	0.45575,	0.49560,	0.42946,	0.33233,	0.19491,	0.06388,	-0.01832,	-0.05010,	-0.03835,	0.06120,	0.16576,	0.11662,	-0.05649,	-0.10376,	-0.22441,	-0.28049,	-0.41440,	-0.63453,	-0.78628,	-0.81499,	-0.77886,	-0.64157,	-0.48249,	-0.36782,	-0.39531,	-0.45945,	-0.40467,	-0.38998,	-0.22072,	-0.01547,	0.04854,	-0.01312,	-0.13855,	-0.24863,	-0.36054,	-0.42832,	-0.54718,	-0.73375,	-0.90146,	-0.96937,	-1.00702,	-1.04161,	-0.89629,	-0.68293,	-0.63046,	-0.55681,	-0.48274,	-0.31497,	-0.18388,	-0.19342,	-0.19800,	-0.19087,	-0.27954,	-0.44236,	-0.58794,	-0.77265,	-1.02189,	-1.26377,	-1.39475,	-1.58400,	-1.69558,	-1.74966,	-1.88109,	-2.03086,	-2.16055,	-2.24464,	-2.35605,	-2.50089,	-2.62857,	-2.70534,	-2.86571,	-3.04170,	-3.14112,	-3.15000,	-3.05486,	-2.98801,	-3.10057,	-3.14713,	-3.16592,	-3.15609,	-3.10468,	-3.15286,	-3.26029,	-3.34059,	-3.44329,	-3.51133,	-3.41217,	-3.22761,	-3.01279,	-2.83005,	-2.67325,	-2.65921,	-2.65892,	0.00000,	0.00000,	0.00000,	0.00000,	0.00000,	0.00000,	0.00000,	-1.15726,	-1.03075
-0.26016,	-0.12924,	-0.06709,	-0.22415,	-0.39563,	-0.43220,	-0.56616,	-0.65745,	-0.78892,	-0.94141,	-0.92523,	-0.82093,	-0.75885,	-0.79092,	-0.83776,	-0.82243,	-0.67018,	-0.69344,	-0.76691,	-0.87953,	-0.98763,	-0.93697,	-0.81948,	-0.83928,	-0.77029,	-0.75591,	-0.82129,	-0.87579,	-0.83980,	-0.72410,	-0.65889,	-0.65141,	-0.73900,	-0.68336,	-0.62452,	-0.77285,	-0.88150,	-0.75954,	-0.61374,	-0.45606,	-0.40516,	-0.54645,	-0.65447,	-0.76187,	-0.89926,	-1.01053,	-1.07077,	-1.07302,	-1.06596,	-1.19161,	-1.21056,	-1.05237,	-0.90956,	-0.74509,	-0.61715,	-0.69037,	-0.68422,	-0.53021,	-0.35560,	-0.17127,	-0.08033,	0.07426,	0.20353,	0.33431,	0.41263,	0.53955,	0.74190,	0.80810,	0.85099,	1.01203,	1.14248,	1.25301,	1.28321,	1.16369,	1.11692,	1.20057,	1.35549,	1.49272,	1.53819,	1.49990,	1.52554,	1.47343,	1.38621,	1.44785,	1.45503,	1.48475,	1.51387,	1.47417,	1.53156,	1.63446,	1.62800,	1.61352,	1.53360,	1.62375,	1.60814,	1.52434,	1.41461,	1.44043,	1.68830,	1.77971,	1.75099,	1.81441,	1.90976,	1.98500,	2.07715,	2.02284,	2.06941,	2.11813,	2.04279,	1.87917,	1.77704,	1.73719,	1.77659,	1.68993,	1.42036,	1.18786,	0.92093,	0.79442,	0.79722,	0.72129,	0.63095,	0.69053,	0.70346,	0.77196,	0.74143,	0.83139,	0.90912,	0.97973,	0.95703,	0.84383,	0.87753,	0.81093,	0.60522,	0.45699,	0.31594,	0.24112,	0.36193,	0.40405,	0.45667,	0.46431,	0.50401,	0.53430,	0.55056,	0.54754,	0.51129,	0.38285,	0.07133,	-0.07479,	-0.20860,	-0.34353,	-0.35158,	-0.39835,	-0.42234,	-0.19811,	-0.11968,	-0.04161,	-0.08423,	0.01624,	0.12880,	0.13986,	0.07143,	0.03893,	0.28064,	0.51644,	0.63759,	0.86005,	1.15804,	1.27295,	1.26068,	0.98878,	0.79787,	0.70526,	0.67772,	0.54868,	0.35661,	0.11773,	-0.02798,	-0.02546,	-0.10697,	-0.13588,	-0.25298,	-0.40391,	-0.41434,	-0.43631,	-0.56423,	-0.56277,	-0.65048,	-0.65037,	-0.75939,	-0.81077,	-0.78604,	-0.77143,	-0.86298,	-1.04325,	-1.04632,	-0.93670,	-0.87772,	-0.76484,	-0.61819,	-0.57949,	-0.36051,	-0.20817,	0.00405,	0.24363,	0.42312,	0.44669,	0.32850,	0.20084,	0.10319,	0.05774,	-0.06719,	-0.10908,	-0.07416,	-0.03071,	0.04794,	0.02282,	-0.20276,	-0.25697,	-0.33848,	-0.40168,	-0.58691,	-0.71528,	-0.70971,	-0.67081,	-0.64413,	-0.66439,	-0.53161,	-0.40774,	-0.52116,	-0.60342,	-0.47940,	-0.37046,	-0.17056,	-0.13034,	-0.21392,	-0.32744,	-0.38596,	-0.35970,	-0.34701,	-0.40729,	-0.54085,	-0.61304,	-0.76839,	-0.86607,	-0.91375,	-1.01743,	-0.92506,	-0.70764,	-0.61621,	-0.44763,	-0.27763,	-0.12088,	-0.09016,	-0.13307,	-0.14884,	-0.15749,	-0.19760,	-0.37602,	-0.54170,	-0.72417,	-1.02498,	-1.29806,	-1.34260,	-1.40045,	-1.40452,	-1.51162,	-1.75081,	-1.87988,	-1.99140,	-2.12570,	-2.29962,	-2.50883,	-2.63856,	-2.62745,	-2.80291,	-3.04918,	-3.24183,	-3.38935,	-3.34052,	-3.22007,	-3.28517,	-3.25226,	-3.15316,	-3.09306,	-3.13600,	-3.22741,	-3.21331,	-3.24315,	-3.33395,	-3.42847,	-3.33288,	-3.04754,	-2.86075,	-2.76835,	-2.63507,	-2.65595,	-2.59074,	0.00000,	0.00000,	0.00000,	0.00000,	0.00000,	0.00000,	0.00000,	-1.08837,	-0.82925
-0.27932,	-0.25925,	-0.26677,	-0.32578,	-0.43537,	-0.47963,	-0.58845,	-0.67887,	-0.87406,	-0.96914,	-0.85659,	-0.81317,	-0.78531,	-0.74778,	-0.87075,	-0.85415,	-0.60599,	-0.60582,	-0.71125,	-0.78124,	-0.87034,	-0.86569,	-0.87548,	-0.89082,	-0.82226,	-0.81678,	-0.90580,	-0.97328,	-0.89205,	-0.76810,	-0.68006,	-0.58280,	-0.60965,	-0.62901,	-0.65442,	-0.69416,	-0.70619,	-0.58354,	-0.39247,	-0.20185,	-0.22109,	-0.39099,	-0.44637,	-0.60561,	-0.80808,	-0.90895,	-1.06230,	-1.09245,	-0.94502,	-0.96085,	-0.97361,	-0.77639,	-0.63123,	-0.54506,	-0.48742,	-0.50118,	-0.37326,	-0.17215,	-0.01680,	0.08424,	0.15950,	0.25781,	0.36136,	0.51180,	0.59450,	0.61896,	0.71899,	0.81403,	0.91349,	1.04468,	1.15817,	1.20876,	1.12541,	0.96059,	0.97082,	1.03957,	1.18026,	1.41613,	1.47581,	1.41424,	1.52850,	1.48766,	1.29965,	1.33386,	1.40214,	1.46833,	1.53045,	1.54997,	1.67302,	1.72822,	1.69074,	1.58246,	1.53346,	1.55518,	1.48036,	1.42317,	1.35352,	1.31080,	1.50097,	1.65017,	1.70152,	1.71780,	1.80785,	1.88572,	1.90175,	1.75080,	1.84272,	1.89824,	1.83783,	1.81455,	1.76447,	1.69876,	1.81615,	1.75823,	1.46107,	1.23509,	1.09175,	1.01321,	0.99072,	0.88048,	0.80625,	0.78709,	0.79066,	0.74875,	0.74919,	0.81660,	0.86254,	0.91446,	0.90248,	0.70488,	0.62636,	0.51663,	0.37371,	0.20642,	0.06539,	0.03139,	0.16970,	0.21245,	0.39518,	0.45974,	0.47045,	0.53807,	0.52687,	0.42745,	0.48360,	0.47465,	0.21385,	0.07106,	0.00033,	-0.14757,	-0.20038,	-0.29439,	-0.27397,	-0.16752,	-0.14114,	-0.18597,	-0.20361,	-0.09830,	0.03592,	0.09523,	0.08658,	0.00061,	0.18365,	0.42610,	0.63929,	0.82939,	1.10770,	1.24795,	1.27113,	0.98018,	0.85102,	0.77383,	0.62987,	0.46951,	0.29954,	0.00681,	0.01857,	0.18117,	0.12710,	0.04824,	-0.04706,	-0.19923,	-0.21169,	-0.26165,	-0.29374,	-0.31315,	-0.39517,	-0.52332,	-0.62525,	-0.67069,	-0.68608,	-0.72232,	-0.79481,	-1.01878,	-1.09895,	-1.00344,	-0.81387,	-0.65599,	-0.50636,	-0.46119,	-0.27021,	-0.25087,	-0.07492,	0.18339,	0.32011,	0.40783,	0.39902,	0.19672,	0.12399,	0.14406,	-0.00027,	-0.10475,	-0.05205,	-0.06248,	-0.04868,	-0.13655,	-0.28658,	-0.33979,	-0.38865,	-0.52267,	-0.71417,	-0.83039,	-0.81343,	-0.75022,	-0.68827,	-0.76498,	-0.72567,	-0.64406,	-0.60287,	-0.60237,	-0.50747,	-0.42432,	-0.30137,	-0.40260,	-0.48258,	-0.49880,	-0.49169,	-0.35971,	-0.20177,	-0.30217,	-0.42121,	-0.39737,	-0.53964,	-0.70017,	-0.73013,	-0.83422,	-0.79160,	-0.66774,	-0.51759,	-0.32779,	-0.18288,	-0.14066,	-0.15655,	-0.18363,	-0.21851,	-0.20859,	-0.17046,	-0.30238,	-0.50054,	-0.72508,	-0.92204,	-1.16565,	-1.28305,	-1.33094,	-1.29572,	-1.41001,	-1.58571,	-1.63120,	-1.78302,	-1.95109,	-2.07875,	-2.37725,	-2.57984,	-2.57560,	-2.79899,	-3.13170,	-3.33839,	-3.47582,	-3.44929,	-3.38159,	-3.40289,	-3.32815,	-3.21411,	-3.16306,	-3.25209,	-3.31047,	-3.27887,	-3.24856,	-3.20077,	-3.20980,	-3.18224,	-2.99405,	-2.80145,	-2.69795,	-2.63043,	-2.62776,	-2.48165,	0.00000,	0.00000,	0.00000,	0.00000,	0.00000,	0.00000,	-1.08960,	-0.87060,	-0.51447
